# .PCD v0.7 - Point Cloud Data file format
VERSION 0.7
FIELDS x y z
SIZE 4 4 4
TYPE F F F
COUNT 1 1 1
WIDTH 139
HEIGHT 1
VIEWPOINT 0 0 0 1 0 0 0
POINTS 139
DATA ascii
-0.19003637 0.14183968 0.31851065
-0.18888043 0.14146069 0.31765959
-0.18804313 0.14131856 0.31734043
-0.18764688 0.14150804 0.31776595
-0.18749933 0.14188704 0.31861702
-0.19106841 0.14277513 0.31914893
-0.18990941 0.14239439 0.31829786
-0.18894367 0.14215644 0.31776595
-0.18829527 0.14215644 0.31776595
-0.187961 0.14239439 0.31829786
-0.18781234 0.14277513 0.31914893
-0.18176948 0.14263235 0.31882977
-0.18093763 0.14248958 0.31851065
-0.18052858 0.14267994 0.31893617
-0.19159181 0.14333072 0.31893617
-0.19049522 0.14299607 0.3181915
-0.18959206 0.14280483 0.31776595
-0.18894367 0.14280483 0.31776595
-0.18861046 0.14304388 0.31829786
-0.18846357 0.14342634 0.31914893
-0.18170884 0.14323512 0.31872341
-0.18099806 0.1431873 0.31861702
-0.18064901 0.14342634 0.31914893
-0.20159999 0.14369334 0.31829786
-0.20128633 0.14393348 0.31882977
-0.19302206 0.14407755 0.31914893
-0.19205022 0.14383742 0.31861702
-0.19088884 0.14345323 0.31776595
-0.1898583 0.14316507 0.31712765
-0.18908428 0.14306901 0.31691489
-0.1887539 0.14330915 0.3174468
-0.18867351 0.14374138 0.31840426
-0.18229832 0.14383742 0.31861702
-0.18146624 0.14369334 0.31829786
-0.18099806 0.14383742 0.31861702
-0.2017763 0.14400513 0.31755319
-0.20112833 0.14400513 0.31755319
-0.20068188 0.14414985 0.31787235
-0.20036799 0.14439107 0.31840426
-0.20018539 0.14472876 0.31914893
-0.19413015 0.14458403 0.31882977
-0.19328593 0.14443932 0.31851065
-0.192443 0.14429459 0.3181915
-0.19140899 0.14400513 0.31755319
-0.19018586 0.14357093 0.31659573
-0.18909404 0.14323324 0.31585106
-0.18838608 0.14318499 0.31574467
-0.18818462 0.14352269 0.31648937
-0.18829527 0.1441016 0.31776595
-0.18264301 0.14424634 0.3180851
-0.18162876 0.14395688 0.3174468
-0.18104169 0.14400513 0.31755319
-0.18081675 0.14434282 0.31829786
-0.20123552 0.1442654 0.31670213
-0.20052192 0.14421694 0.31659573
-0.19987591 0.14421694 0.31659573
-0.19936381 0.14431387 0.31680852
-0.19918446 0.14465308 0.31755319
-0.19920163 0.14513768 0.31861702
-0.19491071 0.14533153 0.31904256
-0.19393584 0.14508922 0.31851065
-0.19315679 0.14499231 0.31829786
-0.19224997 0.14479847 0.31787235
-0.19115248 0.14445923 0.31712765
-0.18973853 0.14387773 0.31585106
-0.18852083 0.14344157 0.3148936
-0.18762442 0.14324774 0.31446809
-0.18748879 0.14363542 0.31531915
-0.18779097 0.14436232 0.31691489
-0.18833792 0.14528306 0.31893617
-0.18323076 0.14484692 0.31797871
-0.18191001 0.14431387 0.31680852
-0.18095924 0.14407156 0.31627661
-0.18049583 0.14421694 0.31659573
-0.18039373 0.14465308 0.31755319
-0.18034793 0.14513768 0.31861702
-0.17798482 0.14533153 0.31904256
-0.17727469 0.14528306 0.31893617
-0.19998288 0.14447352 0.31574467
-0.19913714 0.14432751 0.31542554
-0.19849353 0.14432751 0.31542554
-0.19831701 0.14466824 0.31617022
-0.19860303 0.14534973 0.31765959
-0.19497569 0.14603119 0.31914893
-0.19406539 0.14583649 0.31872341
-0.19335048 0.14578781 0.31861702
-0.192443 0.14559311 0.3181915
-0.19121662 0.14515501 0.31723404
-0.18961072 0.14442486 0.3156383
-0.18807501 0.14374337 0.31414893
-0.18705316 0.1434513 0.31351063
-0.18685625 0.14379206 0.31425533
-0.18741275 0.14471692 0.31627661
-0.18808664 0.14573914 0.31851065
-0.18412566 0.14569046 0.31840426
-0.18274033 0.14510633 0.31712765
-0.18136024 0.1445222 0.31585106
-0.18041143 0.14427882 0.31531915
-0.17994998 0.14442486 0.3156383
-0.17984982 0.14486293 0.31659573
-0.17980599 0.14534973 0.31765959
-0.17957781 0.14569046 0.31840426
-0.17916724 0.14588515 0.31882977
-0.17851667 0.14588515 0.31882977
-0.17774741 0.14578781 0.31861702
-0.17715643 0.14583649 0.31872341
-0.17674173 0.14603119 0.31914893
-0.19944383 0.14472663 0.3148936
-0.19853267 0.14453107 0.31446809
-0.19782405 0.14448217 0.31436169
-0.19784991 0.14497112 0.31542554
-0.19840349 0.14585121 0.31734043
-0.19295771 0.14663352 0.31904256
-0.19172961 0.14619347 0.3180851
-0.18993025 0.14531338 0.31617022
-0.18788394 0.1442377 0.31382978
-0.1852075 0.14668241 0.31914893
-0.1839411 0.14619347 0.3180851
-0.18249513 0.14555785 0.31670213
-0.18105482 0.14492223 0.31531915
-0.18010709 0.14467776 0.31478724
-0.17952542 0.14472663 0.3148936
-0.17930593 0.1450689 0.3156383
-0.17926404 0.14555785 0.31670213
-0.1792178 0.14604679 0.31776595
-0.17892812 0.14634015 0.31840426
-0.17839755 0.14643794 0.31861702
-0.17768808 0.14638905 0.31851065
-0.17709729 0.14643794 0.31861702
-0.19789101 0.14517273 0.31446809
-0.19825026 0.1459094 0.31606382
-0.19893558 0.14689162 0.3181915
-0.19237083 0.14733362 0.31914893
-0.17934348 0.14522184 0.31457448
-0.17906418 0.1455165 0.31521276
-0.17902318 0.14600763 0.31627661
-0.17897782 0.14649874 0.31734043
-0.17880856 0.14689162 0.3181915
-0.19931792 0.14734356 0.31776595
