# .PCD v0.7 - Point Cloud Data file format
VERSION 0.7
FIELDS x y z
SIZE 4 4 4
TYPE F F F
COUNT 1 1 1
WIDTH 1329
HEIGHT 1
VIEWPOINT 0 0 0 1 0 0 0
POINTS 1329
DATA ascii
-0.062640168 -0.026921151 0.24095745
-0.062203377 -0.026944922 0.24117021
-0.061820164 -0.026992464 0.24159575
-0.061462216 -0.027051892 0.24212766
-0.061128888 -0.027123207 0.24276596
-0.060766384 -0.027182637 0.24329787
-0.06032265 -0.027206408 0.24351063
-0.0029431856 -0.029821267 0.2669149
-0.0023985547 -0.029821267 0.2669149
-0.0018539237 -0.029821267 0.2669149
-0.0013092927 -0.029821267 0.2669149
-0.00076466182 -0.029821267 0.2669149
-0.00022029399 -0.029856924 0.26723406
0.00032563502 -0.029916352 0.26776597
0.00087546697 -0.030035209 0.26882979
0.0014313308 -0.030189723 0.27021277
0.013363312 -0.031009838 0.2775532
0.013913632 -0.030974181 0.27723405
0.014468207 -0.03095041 0.27702129
0.015039233 -0.030962294 0.27712765
0.015640644 -0.031033609 0.27776596
0.016244661 -0.031104924 0.27840427
0.016857706 -0.031188123 0.27914894
0.017453864 -0.031235663 0.27957445
0.018051762 -0.031283207 0.28
0.018637244 -0.031306978 0.28021276
0.019216303 -0.031318866 0.28031915
0.019795792 -0.031330749 0.28042552
0.020383447 -0.031354524 0.28063831
0.020979913 -0.031390183 0.28095746
0.021577677 -0.031425837 0.28127658
0.022159992 -0.031437721 0.28138298
0.022734145 -0.031437721 0.28138298
0.023290673 -0.031413954 0.28117022
0.023855362 -0.031402066 0.28106382
0.024438109 -0.031413954 0.28117022
-0.12406287 -0.023699021 0.21606383
-0.12368286 -0.023710689 0.21617021
-0.12336308 -0.023734028 0.21638298
-0.12298199 -0.023745695 0.21648936
-0.12266068 -0.023769034 0.21670213
-0.1223385 -0.023792371 0.21691489
-0.12201547 -0.023815708 0.21712767
-0.12175111 -0.023850713 0.2174468
-0.12142612 -0.023874052 0.21765958
-0.12104113 -0.023885719 0.21776596
-0.12065569 -0.023897387 0.21787234
-0.12021113 -0.023897387 0.21787234
-0.064681299 -0.026662856 0.2430851
-0.063960575 -0.026569508 0.24223404
-0.063271195 -0.026487829 0.24148937
-0.062640168 -0.026429486 0.24095745
-0.062203377 -0.026452823 0.24117021
-0.061847385 -0.026511164 0.24170212
-0.06154323 -0.026592845 0.24244681
-0.06120925 -0.026662856 0.2430851
-0.060872667 -0.026732869 0.24372341
-0.060454417 -0.026767876 0.24404256
-0.0029455316 -0.029299973 0.26712766
-0.0023985547 -0.029276635 0.2669149
-0.0018531847 -0.029264966 0.26680851
-0.001308249 -0.029253297 0.26670212
-0.00076405221 -0.029253297 0.26670212
-0.0002200309 -0.029276635 0.2669149
0.00032511752 -0.029323308 0.26734042
0.00087269541 -0.029393321 0.26797873
0.016250867 -0.030548517 0.27851063
0.016870555 -0.030641865 0.2793617
0.017467149 -0.030688541 0.27978724
0.018065479 -0.030735215 0.28021276
0.018651394 -0.03075855 0.28042552
0.019230887 -0.030770222 0.28053191
0.019810814 -0.030781891 0.28063831
0.020391172 -0.030793557 0.28074467
0.020987855 -0.030828563 0.28106382
0.021577677 -0.030851901 0.28127658
0.022134857 -0.030828563 0.28106382
0.022682574 -0.030793557 0.28074467
0.023228986 -0.03075855 0.28042552
0.023810215 -0.030770222 0.28053191
0.024419617 -0.030816898 0.28095746
0.025087535 -0.030933583 0.28202128
0.025788836 -0.031085275 0.28340426
-0.12424612 -0.023292506 0.21638298
-0.12386546 -0.023303956 0.21648936
-0.12348437 -0.023315407 0.21659574
-0.12310286 -0.023326861 0.21670213
-0.12266068 -0.023326861 0.21670213
-0.1223385 -0.023349762 0.21691489
-0.12201547 -0.023372667 0.21712767
-0.12175111 -0.02340702 0.2174468
-0.12136678 -0.023418473 0.2175532
-0.12098199 -0.023429925 0.21765958
-0.12053787 -0.023429925 0.21765958
-0.12009374 -0.023429925 0.21765958
-0.15069322 -0.034354728 0.31914893
-0.149992 -0.034343276 0.31904256
-0.1492912 -0.034331825 0.31893617
-0.14864042 -0.034331825 0.31893617
-0.14808838 -0.034354728 0.31914893
-0.064851142 -0.02623556 0.24372341
-0.064101025 -0.026132496 0.24276596
-0.063354813 -0.02602943 0.2418085
-0.062695473 -0.025960723 0.24117021
-0.062230814 -0.025972173 0.24127659
-0.061847385 -0.026017981 0.24170212
-0.061516229 -0.02608669 0.24234043
-0.061155677 -0.026143948 0.24287234
-0.060819525 -0.026212657 0.24351063
-0.0029490509 -0.028789261 0.26744682
-0.0024004665 -0.028754907 0.26712766
-0.0018531847 -0.028720552 0.26680851
-0.0013077272 -0.028697649 0.26659575
-0.00076405221 -0.028709099 0.26670212
-0.00022011857 -0.028743453 0.26702127
0.00032498816 -0.02876636 0.26723406
0.017480431 -0.030140547 0.28
0.018079195 -0.030186351 0.28042552
0.018665548 -0.030209258 0.28063831
0.019252766 -0.030232159 0.28085107
0.019833343 -0.030243613 0.28095746
0.020422081 -0.030266516 0.28117022
0.021019632 -0.030300871 0.28148937
0.021602161 -0.03031232 0.28159574
0.022143235 -0.030266516 0.28117022
0.022665383 -0.030197805 0.28053191
0.023202552 -0.030152 0.2801064
0.023783127 -0.03016345 0.28021276
0.024419617 -0.030243613 0.28095746
0.025106462 -0.030381031 0.28223404
0.025808197 -0.030529901 0.28361702
0.026485883 -0.030644415 0.28468084
0.027157798 -0.030747481 0.2856383
0.027802624 -0.030816192 0.28627661
-0.12436829 -0.022873452 0.21659574
-0.12392633 -0.022873452 0.21659574
-0.12348437 -0.022873452 0.21659574
-0.12304242 -0.022873452 0.21659574
-0.12266068 -0.022884687 0.21670213
-0.1222785 -0.022895921 0.21680851
-0.12195568 -0.02291839 0.21702127
-0.12169155 -0.022952093 0.21734042
-0.12136678 -0.022974564 0.2175532
-0.12092286 -0.022974564 0.2175532
-0.12047896 -0.022974564 0.2175532
-0.15134443 -0.033703513 0.31914893
-0.15054253 -0.033669811 0.31882977
-0.14979194 -0.03364734 0.31861702
-0.14904222 -0.033624873 0.31840426
-0.14844212 -0.033636108 0.31851065
-0.14784156 -0.03364734 0.31861702
-0.14733887 -0.033681046 0.31893617
-0.14678594 -0.033703513 0.31914893
-0.065405495 -0.02576072 0.24393617
-0.064822838 -0.025727017 0.24361703
-0.064072929 -0.025625905 0.24265957
-0.063354813 -0.025536029 0.2418085
-0.062695473 -0.025468623 0.24117021
-0.062230814 -0.025479857 0.24127659
-0.061820164 -0.02551356 0.24159575
-0.061435211 -0.025558498 0.24202128
-0.061021741 -0.025592202 0.24234043
-0.06060696 -0.025625905 0.24265957
-0.0035017177 -0.028299717 0.26797873
-0.0029513969 -0.028266015 0.26765957
-0.0024004665 -0.028209843 0.26712766
-0.0018524457 -0.028164903 0.26670212
-0.001308249 -0.028164903 0.26670212
-0.00076466182 -0.028187374 0.2669149
-0.00022038167 -0.02823231 0.26734042
0.00032550565 -0.028266015 0.26765957
0.018672623 -0.029647857 0.28074467
0.01926006 -0.029670328 0.28095746
0.019855872 -0.029704029 0.28127658
0.020468442 -0.029760204 0.28180853
0.021075238 -0.029805141 0.28223404
0.021651126 -0.029805141 0.28223404
0.022176748 -0.029737733 0.28159574
0.022682574 -0.029647857 0.28074467
0.023211362 -0.029591685 0.28021276
0.023792157 -0.029602921 0.28031915
0.024447355 -0.029704029 0.28127658
0.025144314 -0.029850079 0.28265956
0.025846921 -0.029996129 0.28404257
0.026525475 -0.030108474 0.28510639
0.027178027 -0.030187115 0.28585106
0.027792292 -0.030220818 0.28617021
0.028376212 -0.030220818 0.28617021
0.028927835 -0.030187115 0.28585106
0.029456191 -0.030130941 0.28531915
0.030015975 -0.030108474 0.28510639
0.03060914 -0.030119706 0.28521276
0.031237645 -0.030164646 0.2856383
-0.12424612 -0.022409461 0.21638298
-0.12386546 -0.022420477 0.21648936
-0.12342373 -0.022420477 0.21648936
-0.12298199 -0.022420477 0.21648936
-0.12260046 -0.022431495 0.21659574
-0.12221851 -0.022442514 0.21670213
-0.12195568 -0.022475565 0.21702127
-0.12157243 -0.022486582 0.21712767
-0.12118873 -0.0224976 0.21723405
-0.12074547 -0.0224976 0.21723405
-0.12030221 -0.0224976 0.21723405
-0.15124354 -0.033030268 0.31893617
-0.15039185 -0.032986198 0.31851065
-0.14959189 -0.032953147 0.3181915
-0.14889283 -0.032942127 0.3180851
-0.14829338 -0.032953147 0.3181915
-0.14774284 -0.032975178 0.31840426
-0.14719144 -0.032997213 0.31861702
-0.14663917 -0.033019248 0.31882977
-0.14608604 -0.033041287 0.31904256
-0.065177307 -0.025174836 0.2430851
-0.064596377 -0.025141785 0.24276596
-0.063960575 -0.025086697 0.24223404
-0.063271195 -0.025009576 0.24148937
-0.062667824 -0.024965506 0.24106383
-0.062175937 -0.024965506 0.24106383
-0.061765719 -0.024998557 0.24138297
-0.061327197 -0.025020592 0.24159575
-0.060887799 -0.025042627 0.2418085
-0.0035044977 -0.02777495 0.26819149
-0.0029525699 -0.027730882 0.26776597
-0.0024004665 -0.027664777 0.26712766
-0.0018524457 -0.027620705 0.26670212
-0.001308249 -0.027620705 0.26670212
-0.00076527131 -0.027664777 0.26712766
-0.00022055706 -0.027708845 0.26755318
0.021114958 -0.029284339 0.28276595
0.021691931 -0.029284339 0.28276595
0.022218637 -0.029218234 0.28212765
0.022716954 -0.029119078 0.28117022
0.023237798 -0.029052973 0.28053191
0.023828274 -0.029075008 0.28074467
0.024484342 -0.029174166 0.28170213
0.025182169 -0.029317392 0.28308511
0.02587596 -0.029449599 0.28436169
0.026535371 -0.029537739 0.28521276
0.027157798 -0.029581811 0.2856383
0.027750963 -0.029592827 0.28574467
0.028334016 -0.029592827 0.28574467
0.028895536 -0.029570792 0.28553191
0.029456191 -0.029548759 0.28531915
0.030015975 -0.029526724 0.28510639
0.03060914 -0.029537739 0.28521276
0.031237645 -0.029581811 0.2856383
0.031879738 -0.029636897 0.28617021
0.032511931 -0.029680965 0.28659573
-0.12412395 -0.021946337 0.21617021
-0.12374374 -0.021957139 0.2162766
-0.12330243 -0.021957139 0.2162766
-0.12298199 -0.021978738 0.21648936
-0.12260046 -0.021989539 0.21659574
-0.1222785 -0.02201114 0.21680851
-0.12195568 -0.02203274 0.21702127
-0.12151285 -0.02203274 0.21702127
-0.12101068 -0.02202194 0.21691489
-0.12056807 -0.02202194 0.21691489
-0.12006655 -0.02201114 0.21680851
-0.15194499 -0.032390289 0.31904256
-0.15104176 -0.032336287 0.31851065
-0.15019092 -0.032293085 0.3180851
-0.14944185 -0.032271486 0.31787235
-0.14879324 -0.032271486 0.31787235
-0.14824378 -0.032293085 0.3180851
-0.14769347 -0.032314684 0.31829786
-0.14714229 -0.032336287 0.31851065
-0.14654131 -0.032347087 0.31861702
-0.1459886 -0.032368686 0.31882977
-0.14548352 -0.032401089 0.31914893
-0.064920589 -0.024581626 0.24212766
-0.064398229 -0.024570826 0.24202128
-0.063820124 -0.024538424 0.24170212
-0.063187577 -0.024484422 0.24117021
-0.062612511 -0.024452021 0.24085106
-0.06212106 -0.024452021 0.24085106
-0.061684057 -0.024473622 0.24106383
-0.061246179 -0.024495224 0.24127659
-0.060753863 -0.024495224 0.24127659
-0.0035003272 -0.027195314 0.26787233
-0.0029502236 -0.027162911 0.26755318
-0.0023985547 -0.027098112 0.2669149
-0.0018517069 -0.027065711 0.26659575
-0.0013077272 -0.027065711 0.26659575
-0.00076496653 -0.02710891 0.26702127
-0.00022055706 -0.027162911 0.26755318
0.022243772 -0.028674964 0.2824468
0.022734145 -0.02856696 0.28138298
0.023264237 -0.028512958 0.28085107
0.023846334 -0.02852376 0.28095746
0.024502834 -0.028620962 0.28191489
0.025220022 -0.028782966 0.28351063
0.025905002 -0.028901771 0.28468084
0.026535371 -0.028955773 0.28521276
0.027127454 -0.028966574 0.28531915
0.027699305 -0.028955773 0.28521276
0.028270725 -0.028944973 0.28510639
0.028852476 -0.028944973 0.28510639
0.029445207 -0.028955773 0.28521276
0.030027173 -0.028955773 0.28521276
0.030620558 -0.028966574 0.28531915
0.031249277 -0.029009774 0.28574467
0.031891588 -0.029063778 0.28627661
0.032523997 -0.029106978 0.28670213
0.033133574 -0.029128578 0.28691489
-0.12425853 -0.021452332 0.21563829
-0.12387961 -0.021462915 0.21574467
-0.12350027 -0.021473501 0.21585107
-0.12324177 -0.02150525 0.21617021
-0.12298199 -0.021536998 0.21648936
-0.1227209 -0.021568749 0.21680851
-0.1223985 -0.021589916 0.21702127
-0.12195568 -0.021589916 0.21702127
-0.12145329 -0.021579333 0.21691489
-0.12089199 -0.021558167 0.21670213
-0.12033155 -0.021536998 0.21648936
-0.1198309 -0.021526417 0.21638298
-0.15673375 -0.031654626 0.3181915
-0.15629321 -0.03169696 0.31861702
-0.15574703 -0.031718124 0.31882977
-0.15514822 -0.031728711 0.31893617
-0.15449744 -0.031728711 0.31893617
-0.15389799 -0.031739295 0.31904256
-0.15324698 -0.031739295 0.31904256
-0.15254511 -0.031728711 0.31893617
-0.15174232 -0.03169696 0.31861702
-0.15094085 -0.03166521 0.31829786
-0.15009046 -0.031622875 0.31787235
-0.14939183 -0.031612292 0.31776595
-0.14879324 -0.031622875 0.31787235
-0.14829338 -0.031654626 0.3181915
-0.14774284 -0.031675793 0.31840426
-0.14714229 -0.031686377 0.31851065
-0.14654131 -0.03169696 0.31861702
-0.1459886 -0.031718124 0.31882977
-0.14548352 -0.031749874 0.31914893
-0.064806491 -0.02404524 0.24170212
-0.064285003 -0.024034657 0.24159575
-0.063707761 -0.024002906 0.24127659
-0.063131832 -0.023971157 0.24095745
-0.062557198 -0.023939406 0.2406383
-0.062038746 -0.023928825 0.24053192
-0.061602391 -0.02394999 0.24074468
-0.061138164 -0.023960574 0.24085106
-0.060673505 -0.023971157 0.24095745
-0.0034933768 -0.026595812 0.26734042
-0.0029455316 -0.026574647 0.26712766
-0.0023975985 -0.026542896 0.26680851
-0.001850968 -0.026511146 0.26648936
-0.0013066835 -0.026500564 0.26638299
-0.00076405221 -0.026532313 0.26670212
0.026515577 -0.028352639 0.285
0.027076881 -0.028331473 0.28478724
0.027637318 -0.028310308 0.28457448
0.028217983 -0.028310308 0.28457448
0.028830942 -0.028342055 0.2848936
0.029456191 -0.028384389 0.28531915
0.030060774 -0.028405555 0.28553191
0.03065481 -0.02841614 0.2856383
0.031272549 -0.028447891 0.28595746
0.031903438 -0.028490221 0.28638297
0.032548133 -0.028543139 0.28691489
0.03314586 -0.028553722 0.28702128
0.033706516 -0.028532557 0.28680852
0.034253579 -0.028500807 0.28648937
0.038516447 -0.028627804 0.28776595
0.039089173 -0.028617224 0.28765959
0.039705478 -0.028638389 0.28787234
0.04033754 -0.02867014 0.2881915
-0.12395202 -0.020960499 0.21510638
-0.12363527 -0.020981232 0.21531914
-0.12337852 -0.02101233 0.21563829
-0.12318112 -0.021053795 0.21606383
-0.12304242 -0.021105627 0.21659574
-0.12278111 -0.021136725 0.21691489
-0.1225185 -0.021167824 0.21723405
-0.12201547 -0.021157458 0.21712767
-0.12139373 -0.02112636 0.21680851
-0.12077329 -0.021095259 0.21648936
-0.12015416 -0.02106416 0.21617021
-0.11965416 -0.021053795 0.21606383
-0.15680419 -0.03089134 0.31702128
-0.15631454 -0.030922439 0.31734043
-0.15577137 -0.03094317 0.31755319
-0.15522735 -0.030963901 0.31776595
-0.15468246 -0.030984635 0.31797871
-0.15408517 -0.030995002 0.3180851
-0.15348744 -0.031005368 0.3181915
-0.15288928 -0.031015733 0.31829786
-0.1522398 -0.031015733 0.31829786
-0.15153967 -0.031005368 0.3181915
-0.1507895 -0.030984635 0.31797871
-0.15004022 -0.030963901 0.31776595
-0.14934182 -0.030953538 0.31765959
-0.14879324 -0.030974269 0.31787235
-0.14824378 -0.030995002 0.3180851
-0.14774284 -0.031026101 0.31840426
-0.14719144 -0.031046832 0.31861702
-0.14654131 -0.031046832 0.31861702
-0.1459886 -0.031067563 0.31882977
-0.064863548 -0.023572788 0.2419149
-0.064285003 -0.023541689 0.24159575
-0.063679673 -0.023500223 0.24117021
-0.063076086 -0.023458758 0.24074468
-0.062529542 -0.023438027 0.24053192
-0.061983868 -0.023417294 0.24031915
-0.061520725 -0.02342766 0.24042553
-0.06105715 -0.023438027 0.24053192
-0.060593139 -0.023448393 0.2406383
-0.0034864263 -0.025998482 0.26680851
-0.0029408392 -0.025988115 0.26670212
-0.0023947305 -0.025967384 0.26648936
-0.0018487512 -0.025936285 0.2661702
-0.0013056397 -0.025936285 0.2661702
0.027606321 -0.027698543 0.28425533
0.028207432 -0.027719276 0.28446808
0.028830942 -0.027760739 0.2848936
0.029467175 -0.027812572 0.28542554
0.030083174 -0.027843669 0.28574467
0.030700477 -0.027874768 0.28606382
0.031319086 -0.027905867 0.28638297
0.031962693 -0.027957698 0.28691489
0.032596409 -0.027999165 0.28734043
0.033195 -0.028009528 0.2874468
0.03373152 -0.027968066 0.28702128
0.034291737 -0.027947333 0.28680852
0.034889895 -0.027957698 0.28691489
0.03555426 -0.028019896 0.28755319
0.036221225 -0.028082093 0.2881915
0.036863621 -0.028123558 0.28861701
0.037438732 -0.028113194 0.28851065
0.03799938 -0.028092459 0.28829786
0.038559165 -0.028071728 0.2880851
0.039132535 -0.02806136 0.28797871
0.039734822 -0.028071728 0.2880851
0.04035243 -0.028092459 0.28829786
0.040986013 -0.028123558 0.28861701
0.041636229 -0.028165024 0.28904256
-0.12376811 -0.020491134 0.21478723
-0.1235131 -0.020521581 0.21510638
-0.12337852 -0.020572327 0.21563829
-0.12324177 -0.020623073 0.21617021
-0.12310286 -0.020673819 0.21670213
-0.12284133 -0.020704266 0.21702127
-0.1225185 -0.020724565 0.21723405
-0.12195568 -0.020704266 0.21702127
-0.12133417 -0.020673819 0.21670213
-0.12071394 -0.020643372 0.21638298
-0.12015416 -0.020623073 0.21617021
-0.1567708 -0.029747158 0.3118085
-0.15682709 -0.029879101 0.3131915
-0.15687773 -0.030011039 0.31457448
-0.15686987 -0.030132826 0.31585106
-0.15648848 -0.030183572 0.31638297
-0.15589531 -0.030193722 0.31648937
-0.15524954 -0.030193722 0.31648937
-0.15470767 -0.030214021 0.31670213
-0.15421671 -0.030244468 0.31702128
-0.15372445 -0.030274916 0.31734043
-0.15317954 -0.030295214 0.31755319
-0.15258269 -0.030305363 0.31765959
-0.15203628 -0.030325662 0.31787235
-0.15138768 -0.030325662 0.31787235
-0.15068862 -0.030315511 0.31776595
-0.14998999 -0.030305363 0.31765959
-0.14929181 -0.030295214 0.31755319
-0.14874344 -0.030315511 0.31776595
-0.14824378 -0.03034596 0.3180851
-0.14774284 -0.030376406 0.31840426
-0.14719144 -0.030396705 0.31861702
-0.14663917 -0.030417003 0.31882977
-0.14608604 -0.030437302 0.31904256
-0.065587096 -0.023160361 0.24276596
-0.065006167 -0.023129914 0.24244681
-0.064369924 -0.023079168 0.2419149
-0.063707761 -0.023018273 0.24127659
-0.063076086 -0.022967527 0.24074468
-0.062501885 -0.02293708 0.24042553
-0.061956428 -0.022916781 0.24021277
-0.061466284 -0.022916781 0.24021277
-0.060976136 -0.022916781 0.24021277
-0.060512777 -0.02292693 0.24031915
-0.060022414 -0.02292693 0.24031915
-0.0034808659 -0.025413474 0.26638299
-0.0029373204 -0.025413474 0.26638299
-0.0023918627 -0.025393173 0.2661702
-0.0018472734 -0.025372876 0.26595744
-0.0013035525 -0.025352579 0.26574469
0.029478155 -0.027240319 0.28553191
0.030105576 -0.027280917 0.28595746
0.030723313 -0.027311364 0.28627661
0.031377256 -0.027372258 0.28691489
0.032045655 -0.027443303 0.28765959
0.032692954 -0.027494049 0.2881915
0.033281002 -0.027494049 0.2881915
0.033819035 -0.02745345 0.28776595
0.034355335 -0.027412856 0.28734043
0.034954578 -0.027423004 0.2874468
0.035593718 -0.027463602 0.28787234
0.036261339 -0.027524497 0.28851065
0.036890794 -0.027554942 0.28882977
0.037480142 -0.027554942 0.28882977
0.038041446 -0.027534645 0.28861701
0.038616125 -0.027524497 0.28851065
0.039190363 -0.027514346 0.28840426
0.039778844 -0.027514346 0.28840426
0.040411994 -0.027544795 0.28872341
0.041046444 -0.027575241 0.28904256
0.041697521 -0.027615838 0.28946808
0.042350341 -0.027656436 0.28989363
-0.12414487 -0.020042935 0.21468085
-0.12376811 -0.020052867 0.21478723
-0.12357419 -0.020092595 0.21521276
-0.12350027 -0.020152189 0.21585107
-0.12336308 -0.020201849 0.21638298
-0.12316329 -0.020241577 0.21680851
-0.12284133 -0.020261442 0.21702127
-0.1223985 -0.020261442 0.21702127
-0.12183612 -0.020241577 0.21680851
-0.12121503 -0.02021178 0.21648936
-0.1206546 -0.020191917 0.2162766
-0.12009503 -0.020172052 0.21606383
-0.15750407 -0.029011603 0.31074467
-0.15724593 -0.02908113 0.31148937
-0.15698476 -0.029150654 0.31223404
-0.15693362 -0.029259907 0.31340426
-0.15687773 -0.029369161 0.31457448
-0.15665853 -0.029448617 0.31542554
-0.15617275 -0.02947841 0.31574467
-0.15547609 -0.02946848 0.3156383
-0.15483205 -0.02946848 0.3156383
-0.15429193 -0.029488344 0.31585106
-0.15380271 -0.02951814 0.31617022
-0.15336369 -0.029557867 0.31659573
-0.15287164 -0.029587664 0.31691489
-0.15237829 -0.02961746 0.31723404
-0.15188363 -0.029647257 0.31755319
-0.15128635 -0.029657191 0.31765959
-0.15063818 -0.029657191 0.31765959
-0.14993976 -0.029647257 0.31755319
-0.14929181 -0.029647257 0.31755319
-0.14869365 -0.029657191 0.31765959
-0.14819421 -0.029686984 0.31797871
-0.14774284 -0.029726714 0.31840426
-0.14724058 -0.029756511 0.31872341
-0.14673702 -0.029786307 0.31904256
-0.065817021 -0.022744462 0.24361703
-0.065205835 -0.022704734 0.2431915
-0.064483151 -0.022625277 0.24234043
-0.063763946 -0.02254582 0.24148937
-0.063103959 -0.022486227 0.24085106
-0.062501885 -0.022446498 0.24042553
-0.061956428 -0.022426635 0.24021277
-0.061439063 -0.022416703 0.24010639
-0.060922127 -0.02240677 0.23999999
-0.060405627 -0.022396838 0.23989362
-0.059916131 -0.022396838 0.23989362
-0.0034766954 -0.024840131 0.26606384
-0.0029338012 -0.024840131 0.26606384
-0.0023889947 -0.024820264 0.26585105
-0.0018443179 -0.024790471 0.26553193
-0.0013014651 -0.024770604 0.26531914
0.032152314 -0.026945731 0.28861701
0.032789502 -0.026985461 0.28904256
0.033379283 -0.026985461 0.28904256
0.033919055 -0.026945731 0.28861701
0.034457091 -0.026906004 0.2881915
0.035045136 -0.026906004 0.2881915
0.03569895 -0.026955664 0.28872341
0.036341559 -0.026995391 0.28914893
0.036958739 -0.027015258 0.28936172
0.037521556 -0.026995391 0.28914893
0.038083512 -0.026975527 0.28893617
0.038658839 -0.026965594 0.28882977
0.039248183 -0.026965594 0.28882977
0.039866883 -0.026985461 0.28904256
0.040501334 -0.027015258 0.28936172
0.041137084 -0.027045051 0.28968084
0.041774143 -0.027074847 0.28999999
0.042428046 -0.027114578 0.29042554
0.043099441 -0.027164238 0.29095745
-0.12396031 -0.019575741 0.2143617
-0.12382942 -0.019624317 0.21489362
-0.12375744 -0.019682607 0.21553192
-0.12368286 -0.019740896 0.21617021
-0.12348437 -0.019779757 0.21659574
-0.12322372 -0.019808901 0.21691489
-0.12278111 -0.019808901 0.21691489
-0.12221851 -0.019789472 0.21670213
-0.12165677 -0.019770043 0.21648936
-0.12115546 -0.019760327 0.21638298
-0.12059525 -0.019740896 0.21617021
-0.12015416 -0.019740896 0.21617021
-0.15880595 -0.028270673 0.30957446
-0.15844607 -0.028319251 0.3101064
-0.15819226 -0.028387256 0.31085107
-0.15788151 -0.028445546 0.31148937
-0.15767556 -0.028523266 0.31234044
-0.15741265 -0.02859127 0.31308511
-0.15714671 -0.028659275 0.31382978
-0.15682466 -0.028717564 0.31446809
-0.15639433 -0.028756423 0.3148936
-0.15585706 -0.028775856 0.31510639
-0.15521409 -0.028775856 0.31510639
-0.15451893 -0.02876614 0.315
-0.15398012 -0.02878557 0.31521276
-0.15354395 -0.02882443 0.3156383
-0.15315756 -0.028873006 0.31617022
-0.15271769 -0.028911864 0.31659573
-0.1522761 -0.028950725 0.31702128
-0.15178187 -0.028979871 0.31734043
-0.15123567 -0.028999301 0.31755319
-0.15063818 -0.029009016 0.31765959
-0.14993976 -0.028999301 0.31755319
-0.14934182 -0.029009016 0.31765959
-0.14874344 -0.02901873 0.31776595
-0.14824378 -0.029047875 0.3180851
-0.14779221 -0.029086737 0.31851065
-0.14733887 -0.029125595 0.31893617
-0.065262876 -0.022227939 0.24340425
-0.064539768 -0.022150218 0.24255319
-0.063820124 -0.0220725 0.24170212
-0.063159704 -0.02201421 0.24106383
-0.062557198 -0.02197535 0.2406383
-0.061983868 -0.021946205 0.24031915
-0.061439063 -0.021926776 0.24010639
-0.060868118 -0.021897629 0.23978724
-0.060352053 -0.021887915 0.23968086
-0.0034753052 -0.024287522 0.26595744
-0.0029314547 -0.024277804 0.26585105
-0.0023870827 -0.024258375 0.26563829
-0.0018435789 -0.024238946 0.26542553
-0.0013009433 -0.024219517 0.26521277
0.033428423 -0.026434537 0.28946808
0.033969067 -0.026395679 0.28904256
0.034533404 -0.026376247 0.28882977
0.035148628 -0.026395679 0.28904256
0.035804179 -0.026444254 0.28957447
0.036448527 -0.026483113 0.28999999
0.037026677 -0.026473399 0.28989363
0.03757678 -0.026444254 0.28957447
0.038125578 -0.026415108 0.28925532
0.038687319 -0.026395679 0.28904256
0.039306011 -0.026415108 0.28925532
0.039969593 -0.026463684 0.28978723
0.040635344 -0.026512258 0.29031914
0.041257944 -0.026531687 0.2905319
0.04186609 -0.026541403 0.2906383
0.04249021 -0.026560832 0.29085106
0.043115199 -0.026580261 0.29106382
0.043709103 -0.026580261 0.29106382
0.044254437 -0.02655112 0.29074469
0.04479846 -0.026521973 0.29042554
0.045391064 -0.026521973 0.29042554
-0.12377576 -0.019109851 0.21404256
-0.12382942 -0.019185834 0.21489362
-0.12387961 -0.019261817 0.21574467
-0.1238046 -0.019318806 0.21638298
-0.12354503 -0.019347299 0.21670213
-0.12316329 -0.019356797 0.21680851
-0.12266068 -0.019347299 0.21670213
-0.12209851 -0.019328304 0.21648936
-0.12153721 -0.019309308 0.2162766
-0.1210959 -0.019309308 0.2162766
-0.12059525 -0.019299809 0.21617021
-0.12015416 -0.019299809 0.21617021
-0.16078441 -0.027762473 0.31095746
-0.15998554 -0.027733978 0.31063831
-0.15940626 -0.027743476 0.31074467
-0.15904397 -0.027790964 0.31127658
-0.15878779 -0.027857451 0.31202129
-0.15852857 -0.027923936 0.31276596
-0.1582126 -0.027980926 0.31340426
-0.15773357 -0.028009418 0.31372342
-0.15725324 -0.028037911 0.31404254
-0.1566655 -0.028047409 0.31414893
-0.156183 -0.028075904 0.31446809
-0.15564658 -0.028094899 0.31468084
-0.15500447 -0.028094899 0.31468084
-0.15441458 -0.028104398 0.31478724
-0.15382423 -0.028113894 0.3148936
-0.15338869 -0.028151887 0.31531915
-0.15300296 -0.028199377 0.31585106
-0.15261507 -0.028246867 0.31638297
-0.15222499 -0.028294355 0.31691489
-0.15173098 -0.028322849 0.31723404
-0.15118501 -0.028341845 0.3174468
-0.15063818 -0.028360842 0.31765959
-0.14998999 -0.028360842 0.31765959
-0.14939183 -0.028370339 0.31776595
-0.14884304 -0.028389335 0.31797871
-0.14829338 -0.028408332 0.3181915
-0.14784156 -0.028446322 0.31861702
-0.065177307 -0.021702787 0.2430851
-0.064511456 -0.021645799 0.24244681
-0.063820124 -0.021579314 0.24170212
-0.063187577 -0.021531824 0.24117021
-0.062640168 -0.021512829 0.24095745
-0.062066182 -0.021484336 0.2406383
-0.061493505 -0.021455841 0.24031915
-0.060895123 -0.021417849 0.23989362
-0.060352053 -0.021398854 0.23968086
-0.0040195896 -0.023754343 0.26606384
-0.0034739149 -0.023735344 0.26585105
-0.0029302819 -0.023725849 0.26574469
-0.0023861269 -0.023706853 0.26553193
-0.0018435789 -0.023697354 0.26542553
-0.001301987 -0.023697354 0.26542553
0.035200372 -0.025843889 0.28946808
0.035856791 -0.025891377 0.28999999
0.036502011 -0.025929371 0.29042554
0.037081026 -0.025919871 0.29031914
0.037618194 -0.025881881 0.28989363
0.038153622 -0.025843889 0.28946808
0.038730036 -0.025834391 0.28936172
0.039378293 -0.025872381 0.28978723
0.040072303 -0.025938867 0.2905319
0.040754467 -0.025995854 0.29117021
0.041363697 -0.026005354 0.2912766
0.041927386 -0.025986357 0.29106382
0.04249021 -0.025967361 0.29085106
0.043083683 -0.025967361 0.29085106
0.043661181 -0.025957864 0.29074469
0.044205859 -0.025929371 0.29042554
0.044765644 -0.025910376 0.29021278
0.045374434 -0.025919871 0.29031914
0.046067886 -0.025976859 0.29095745
0.046849247 -0.026081337 0.29212767
0.050682504 -0.02652774 0.29712766
0.051233694 -0.026499245 0.29680851
-0.12371861 -0.018598856 0.21319149
-0.1235912 -0.01864526 0.21372341
-0.12376811 -0.018738069 0.21478723
-0.12387961 -0.018821597 0.21574467
-0.1238046 -0.018877283 0.21638298
-0.12354503 -0.018905126 0.21670213
-0.12310286 -0.018905126 0.21670213
-0.12254025 -0.018886564 0.21648936
-0.12197851 -0.018868003 0.2162766
-0.12147742 -0.01885872 0.21617021
-0.12103633 -0.01885872 0.21617021
-0.1206546 -0.018868003 0.2162766
-0.12021329 -0.018868003 0.2162766
-0.16202635 -0.027230062 0.31212765
-0.16138947 -0.027230062 0.31212765
-0.16086218 -0.027248625 0.31234044
-0.16044313 -0.027285747 0.31276596
-0.16002238 -0.027322873 0.3131915
-0.15959987 -0.027359994 0.31361702
-0.15912171 -0.027387837 0.31393617
-0.15858853 -0.027406398 0.31414893
-0.15794753 -0.027406398 0.31414893
-0.15725324 -0.027397117 0.31404254
-0.15655939 -0.027387837 0.31393617
-0.15602449 -0.027406398 0.31414893
-0.15554135 -0.027434241 0.31446809
-0.15500447 -0.027452802 0.31468084
-0.15441458 -0.027462086 0.31478724
-0.15382423 -0.027471364 0.3148936
-0.15338869 -0.02750849 0.31531915
-0.15300296 -0.027554894 0.31585106
-0.15261507 -0.027601298 0.31638297
-0.15217391 -0.027638422 0.31680852
-0.15173098 -0.027675545 0.31723404
-0.15123567 -0.027703388 0.31755319
-0.15063818 -0.027712669 0.31765959
-0.15004022 -0.027721949 0.31776595
-0.14944185 -0.02773123 0.31787235
-0.14889283 -0.027749792 0.3180851
-0.14839253 -0.027777635 0.31840426
-0.14798965 -0.027824039 0.31893617
-0.064892069 -0.021113971 0.24202128
-0.064369924 -0.021104692 0.2419149
-0.063763946 -0.021067567 0.24148937
-0.063215449 -0.021049006 0.24127659
-0.062695473 -0.021039724 0.24117021
-0.06212106 -0.021011882 0.24085106
-0.06154795 -0.020984041 0.24053192
-0.060976136 -0.020956198 0.24021277
-0.0040163752 -0.023192884 0.26585105
-0.0034711347 -0.023174323 0.26563829
-0.0029267627 -0.023155762 0.26542553
-0.0023851709 -0.023155762 0.26542553
-0.0018443179 -0.023165043 0.26553193
-0.0013040743 -0.023192884 0.26585105
0.037645802 -0.025308924 0.29010639
0.038181666 -0.025271799 0.28968084
0.038758513 -0.02526252 0.28957447
0.039407201 -0.025299642 0.28999999
0.040116321 -0.025373889 0.29085106
0.040814027 -0.025438856 0.29159576
0.041409019 -0.025438856 0.29159576
0.041942712 -0.025401732 0.29117021
0.04245913 -0.025355328 0.2906383
0.043004889 -0.025327485 0.29031914
0.043581303 -0.025318205 0.29021278
0.044141084 -0.025299642 0.28999999
0.04473282 -0.025299642 0.28999999
0.045391064 -0.025336767 0.29042554
0.04611842 -0.025411014 0.2912766
0.046917487 -0.025522383 0.29255319
0.047704492 -0.025624473 0.2937234
0.048496272 -0.025726562 0.29489362
0.049275111 -0.025819371 0.29595745
0.049986579 -0.025875056 0.29659575
0.050628066 -0.025893617 0.29680851
0.051196966 -0.025875056 0.29659575
0.051653516 -0.025800809 0.29574469
0.052031402 -0.025689438 0.29446808
-0.12371861 -0.018163847 0.21319149
-0.1235912 -0.018209165 0.21372341
-0.12370682 -0.01829074 0.21468085
-0.12375744 -0.01836325 0.21553192
-0.12368286 -0.018417632 0.21617021
-0.12342373 -0.018444825 0.21648936
-0.12298199 -0.018444825 0.21648936
-0.12248003 -0.018435761 0.21638298
-0.12191851 -0.018417632 0.21617021
-0.12147742 -0.018417632 0.21617021
-0.12103633 -0.018417632 0.21617021
-0.1206546 -0.018426698 0.2162766
-0.12021329 -0.018426698 0.2162766
-0.16282956 -0.026620368 0.3124468
-0.16224726 -0.026629433 0.3125532
-0.16182952 -0.026665686 0.31297871
-0.16157444 -0.026729135 0.31372342
-0.16126172 -0.026783515 0.31436169
-0.16072899 -0.026801646 0.31457448
-0.16014124 -0.026810708 0.31468084
-0.15949915 -0.026810708 0.31468084
-0.15880336 -0.026801646 0.31457448
-0.15805449 -0.026783515 0.31436169
-0.15719998 -0.026747262 0.31393617
-0.1564533 -0.026729135 0.31372342
-0.15591882 -0.026747262 0.31393617
-0.15548871 -0.026783515 0.31436169
-0.15500447 -0.026810708 0.31468084
-0.15446675 -0.026828835 0.3148936
-0.15392816 -0.026846964 0.31510639
-0.15344046 -0.026874155 0.31542554
-0.15300296 -0.026910409 0.31585106
-0.15266639 -0.026964793 0.31648937
-0.15222499 -0.027001048 0.31691489
-0.15178187 -0.027037304 0.31734043
-0.15123567 -0.027055431 0.31755319
-0.15063818 -0.027064495 0.31765959
-0.14998999 -0.027064495 0.31765959
-0.14939183 -0.027073557 0.31776595
-0.14884304 -0.027091684 0.31797871
-0.14844212 -0.027137006 0.31851065
-0.064635351 -0.020538561 0.24106383
-0.064171776 -0.020547625 0.24117021
-0.063679673 -0.020547625 0.24117021
-0.063187577 -0.020547625 0.24117021
-0.062695473 -0.020547625 0.24117021
-0.0621485 -0.020529497 0.24095745
-0.061602391 -0.02051137 0.24074468
-0.0045551867 -0.022632297 0.26563829
-0.0040115537 -0.022623235 0.26553193
-0.0034683547 -0.02261417 0.26542553
-0.0029255894 -0.022605106 0.26531914
-0.0023851709 -0.02261417 0.26542553
-0.0018457957 -0.022641363 0.26574469
-0.0013051181 -0.022668554 0.26606384
0.041942712 -0.02480761 0.29117021
0.042412505 -0.024735099 0.29031914
0.042941857 -0.024698844 0.28989363
0.043533377 -0.024698844 0.28989363
0.044141084 -0.024707906 0.28999999
0.04479846 -0.024744162 0.29042554
0.045474198 -0.024789482 0.29095745
0.046219479 -0.024871055 0.29191488
0.046985734 -0.024961695 0.29297873
0.0477736 -0.025061393 0.29414892
0.04853126 -0.02514297 0.29510638
0.049239688 -0.025197353 0.29574469
0.049914859 -0.025233606 0.2961702
0.050555483 -0.025251737 0.29638299
0.051141877 -0.025242671 0.2962766
0.051579192 -0.025161097 0.29531914
0.051956214 -0.025052331 0.29404256
0.052404083 -0.02497982 0.29319149
0.053098485 -0.02502514 0.2937234
0.054067347 -0.025197353 0.29574469
0.055024784 -0.0253605 0.29765958
0.055870742 -0.025469266 0.29893616
0.056641512 -0.025541775 0.29978722
0.05739544 -0.025605224 0.30053192
0.058193468 -0.025686797 0.30148935
0.058995407 -0.025768371 0.30244681
-0.12402729 -0.017773069 0.21372341
-0.12377576 -0.01779961 0.21404256
-0.12370682 -0.01785269 0.21468085
-0.12363527 -0.01790577 0.21531914
-0.12343939 -0.017941158 0.21574467
-0.12312047 -0.017958852 0.21595745
-0.12280069 -0.017976545 0.21617021
-0.12241982 -0.017985392 0.2162766
-0.12191851 -0.017976545 0.21617021
-0.12147742 -0.017976545 0.21617021
-0.12103633 -0.017976545 0.21617021
-0.1205359 -0.017967697 0.21606383
-0.12009503 -0.017967697 0.21606383
-0.16410464 -0.025982831 0.3124468
-0.16346709 -0.025982831 0.3124468
-0.16282956 -0.025982831 0.3124468
-0.16230246 -0.026000524 0.31265956
-0.16199455 -0.026053604 0.31329787
-0.16179359 -0.026124379 0.31414893
-0.16148001 -0.026177458 0.31478724
-0.16094641 -0.026195152 0.315
-0.16030367 -0.026195152 0.315
-0.15960699 -0.026186304 0.3148936
-0.15885705 -0.026168611 0.31468084
-0.15805449 -0.026142072 0.31436169
-0.15719998 -0.026106685 0.31393617
-0.1564533 -0.026088992 0.31372342
-0.15586598 -0.026097838 0.31382978
-0.1554361 -0.026133226 0.31425533
-0.15500447 -0.026168611 0.31468084
-0.15451893 -0.026195152 0.315
-0.15398012 -0.026212845 0.31521276
-0.15354395 -0.026248233 0.3156383
-0.15310603 -0.026283618 0.31606382
-0.15271769 -0.026327852 0.31659573
-0.1522761 -0.026363241 0.31702128
-0.15183274 -0.026398625 0.3174468
-0.15123567 -0.026407475 0.31755319
-0.15063818 -0.026416322 0.31765959
-0.14998999 -0.026416322 0.31765959
-0.14934182 -0.026416322 0.31765959
-0.14884304 -0.026442859 0.31797871
-0.1484917 -0.026495941 0.31861702
-0.064407162 -0.019975904 0.24021277
-0.063973628 -0.019993598 0.24042553
-0.063539229 -0.020011291 0.2406383
-0.063103959 -0.020028984 0.24085106
-0.062667824 -0.020046679 0.24106383
-0.062203377 -0.020055525 0.24117021
-0.061684057 -0.020046679 0.24106383
-0.0045460658 -0.022046039 0.26510638
-0.0040067323 -0.022054886 0.26521277
-0.0034655745 -0.022054886 0.26521277
-0.0029267627 -0.022072578 0.26542553
-0.0023870827 -0.022090271 0.26563829
-0.0018480124 -0.02212566 0.26606384
-0.0013061616 -0.022143353 0.2662766
0.0435174 -0.024098478 0.28978723
0.044222046 -0.024160404 0.2905319
0.044913329 -0.024213485 0.29117021
0.045623835 -0.024275413 0.29191488
0.04635423 -0.024346186 0.29276595
0.04710516 -0.024425806 0.2937234
0.047842715 -0.024496581 0.29457447
0.048548758 -0.024549663 0.29521278
0.049221974 -0.024585048 0.29563829
0.049896933 -0.024620436 0.29606384
0.050537333 -0.024638129 0.2962766
0.051123511 -0.024629282 0.2961702
0.051597774 -0.024567354 0.29542553
0.05199381 -0.024470041 0.29425532
0.052480139 -0.024416959 0.29361701
0.053194646 -0.024470041 0.29425532
0.054125693 -0.024620436 0.29606384
0.055044454 -0.024761984 0.29776597
0.055890627 -0.024868144 0.29904255
0.056621414 -0.024921225 0.29968086
0.057314169 -0.02495661 0.30010638
0.058049731 -0.025009692 0.30074468
0.058829397 -0.025080465 0.30159575
0.059570607 -0.025133546 0.30223405
0.060272042 -0.025168931 0.30265957
-0.12458292 -0.017414642 0.21468085
-0.12408335 -0.017406013 0.21457447
-0.12370682 -0.017414642 0.21468085
-0.12339094 -0.017431902 0.21489362
-0.12313505 -0.017457789 0.21521276
-0.12281723 -0.01747505 0.21542554
-0.12261939 -0.017509568 0.21585107
-0.12229938 -0.017526828 0.21606383
-0.12191851 -0.017535456 0.21617021
-0.12147742 -0.017535456 0.21617021
-0.12097677 -0.017526828 0.21606383
-0.12041721 -0.017509568 0.21585107
-0.11997677 -0.017509568 0.21585107
-0.16624336 -0.025379812 0.31287235
-0.16526709 -0.025328035 0.31223404
-0.16457389 -0.025319403 0.31212765
-0.16393702 -0.025319403 0.31212765
-0.16330013 -0.025319403 0.31212765
-0.16271868 -0.025328035 0.31223404
-0.16224726 -0.025353923 0.3125532
-0.16199455 -0.025414331 0.31329787
-0.16173878 -0.025474736 0.31404254
-0.16137087 -0.025517888 0.31457448
-0.16078334 -0.025526516 0.31468084
-0.16014124 -0.025526516 0.31468084
-0.15949915 -0.025526516 0.31468084
-0.15874965 -0.025509257 0.31446809
-0.15800102 -0.025491998 0.31425533
-0.15719998 -0.025466109 0.31393617
-0.1564533 -0.025448849 0.31372342
-0.15586598 -0.025457479 0.31382978
-0.15538348 -0.025483368 0.31414893
-0.15489967 -0.025509257 0.31446809
-0.15446675 -0.025543775 0.3148936
-0.1540321 -0.025578294 0.31531915
-0.1535957 -0.025612812 0.31574467
-0.15320911 -0.025655963 0.31627661
-0.15282033 -0.025699111 0.31680852
-0.15237829 -0.025733627 0.31723404
-0.15193452 -0.025768148 0.31765959
-0.151337 -0.025776776 0.31776595
-0.15073907 -0.025785407 0.31787235
-0.15004022 -0.025776776 0.31776595
-0.14944185 -0.025785407 0.31787235
-0.14899242 -0.025819924 0.31829786
-0.14873959 -0.025888961 0.31914893
-0.064724855 -0.019433981 0.23957446
-0.064264543 -0.01944261 0.23968086
-0.063832089 -0.01945987 0.23989362
-0.063426867 -0.019485759 0.24021277
-0.063048214 -0.019520277 0.2406383
-0.062667824 -0.019554796 0.24106383
-0.062258251 -0.019580685 0.24138297
-0.061847385 -0.019606574 0.24170212
-0.0045424174 -0.02148784 0.26489362
-0.0040051248 -0.021505097 0.26510638
-0.0034669645 -0.021522356 0.26531914
-0.0029291087 -0.021548245 0.26563829
-0.0023899507 -0.021574134 0.26595744
-0.0018494902 -0.021600025 0.2662766
-0.0013072053 -0.021617282 0.26648936
0.045706972 -0.023722921 0.29244682
0.04647214 -0.023809215 0.29351065
0.047207527 -0.023878254 0.29436171
0.047911827 -0.02393003 0.29499999
0.048601244 -0.02397318 0.29553193
0.049257398 -0.023999067 0.29585105
0.049932793 -0.024033586 0.2962766
0.050591774 -0.024059476 0.29659575
0.051196966 -0.024059476 0.29659575
0.051690675 -0.024007697 0.29595745
0.052144188 -0.02393866 0.29510638
0.052670289 -0.023904143 0.29468086
0.05338696 -0.023955919 0.29531914
0.05426183 -0.024076734 0.29680851
0.055142783 -0.02419755 0.29829788
0.055930391 -0.024275215 0.29925531
0.05658121 -0.024292475 0.29946807
0.057171952 -0.024283847 0.29936171
0.057803318 -0.024292475 0.29946807
0.058518134 -0.024335625 0.30000001
0.059318986 -0.024413291 0.30095744
0.06010256 -0.024482328 0.30180851
0.0608254 -0.024525477 0.30234042
0.061485555 -0.024542734 0.30255318
-0.12482986 -0.017010244 0.21510638
-0.12420638 -0.016985005 0.21478723
-0.12364551 -0.016968179 0.21457447
-0.1231466 -0.016959768 0.21446809
-0.12283072 -0.016976593 0.21468085
-0.12257462 -0.01700183 0.215
-0.12237766 -0.017035481 0.21542554
-0.12217895 -0.017069131 0.21585107
-0.12185851 -0.017085956 0.21606383
-0.12141764 -0.017085956 0.21606383
-0.12091721 -0.017077543 0.21595745
-0.12035785 -0.017060718 0.21574467
-0.16803281 -0.024817118 0.31382978
-0.16716549 -0.02478347 0.31340426
-0.1661303 -0.02472458 0.31265956
-0.16515449 -0.024674106 0.31202129
-0.16434954 -0.024648869 0.31170213
-0.16376938 -0.024657279 0.3118085
-0.16313314 -0.024657279 0.3118085
-0.1626078 -0.024674106 0.31202129
-0.16219203 -0.024707755 0.3124468
-0.16188453 -0.024758233 0.31308511
-0.16151963 -0.024800295 0.31361702
-0.16104344 -0.024825532 0.31393617
-0.16045721 -0.024833944 0.31404254
-0.15981641 -0.024833944 0.31404254
-0.15917562 -0.024833944 0.31404254
-0.15858853 -0.024842357 0.31414893
-0.15789403 -0.024833944 0.31404254
-0.15719998 -0.024825532 0.31393617
-0.15650634 -0.024817118 0.31382978
-0.15581316 -0.024808709 0.31372342
-0.15527825 -0.024825532 0.31393617
-0.15479487 -0.024850771 0.31425533
-0.15441458 -0.024892833 0.31478724
-0.1540321 -0.024934895 0.31531915
-0.1536992 -0.024985373 0.31595746
-0.15341523 -0.025044261 0.31670213
-0.1530256 -0.025086323 0.31723404
-0.15263379 -0.025128385 0.31776595
-0.15208715 -0.02514521 0.31797871
-0.15153967 -0.025162037 0.3181915
-0.15094085 -0.025170447 0.31829786
-0.15034162 -0.025178861 0.31840426
-0.14974193 -0.025187274 0.31851065
-0.14934102 -0.025229337 0.31904256
-0.064609893 -0.018911486 0.23914893
-0.064178966 -0.018928312 0.2393617
-0.06377548 -0.018953551 0.23968086
-0.063426867 -0.018995613 0.24021277
-0.063048214 -0.019029263 0.2406383
-0.062695473 -0.019071326 0.24117021
-0.062340569 -0.019113388 0.24170212
-0.061956272 -0.019147038 0.24212766
-0.0045442414 -0.020955743 0.26499999
-0.0040051248 -0.020964157 0.26510638
-0.0034683547 -0.020989394 0.26542553
-0.0029314547 -0.021023044 0.26585105
-0.0023918627 -0.021048281 0.2661702
-0.001850968 -0.02107352 0.26648936
-0.0013077272 -0.021081934 0.26659575
0.04796366 -0.023353329 0.29531914
0.048618734 -0.023378568 0.29563829
0.049292825 -0.02341222 0.29606384
0.049986579 -0.023454282 0.29659575
0.050664354 -0.023487931 0.29702127
0.051270418 -0.023487931 0.29702127
0.051857904 -0.023479519 0.29691491
0.052388556 -0.023445869 0.29648936
0.052993532 -0.023445869 0.29648936
0.053733129 -0.023504756 0.29723403
0.054573011 -0.023605708 0.29851064
0.055359099 -0.023681421 0.29946807
0.05604969 -0.023715071 0.29989362
0.05658121 -0.023681421 0.29946807
0.057029735 -0.023614122 0.29861704
0.057556912 -0.023580469 0.29819149
0.058248371 -0.023614122 0.29861704
0.059088334 -0.023706658 0.29978722
0.059954267 -0.023807611 0.30106384
0.060739793 -0.023874911 0.3019149
0.061485555 -0.023925385 0.30255318
0.062299434 -0.024001099 0.30351064
-0.12533073 -0.01657952 0.21521276
-0.12482986 -0.016571326 0.21510638
-0.12414487 -0.016538544 0.21468085
-0.12358422 -0.016522152 0.21446809
-0.12302443 -0.016505761 0.21425532
-0.12270898 -0.016522152 0.21446809
-0.12245332 -0.016546739 0.21478723
-0.12225679 -0.01657952 0.21521276
-0.12205852 -0.016612303 0.21563829
-0.12173852 -0.016628694 0.21585107
-0.12129808 -0.016628694 0.21585107
-0.12085764 -0.016628694 0.21585107
-0.12035785 -0.016620498 0.21574467
-0.16868219 -0.024086609 0.31265956
-0.16827293 -0.024119392 0.31308511
-0.167748 -0.024135783 0.31329787
-0.16688177 -0.024103003 0.31287235
-0.16584767 -0.024045631 0.31212765
-0.16487294 -0.023996461 0.31148937
-0.16412516 -0.023980068 0.31127658
-0.16354589 -0.023988264 0.31138298
-0.16302183 -0.024004655 0.31159574
-0.16255236 -0.024029242 0.31191489
-0.16213681 -0.024062024 0.31234044
-0.16177452 -0.024103003 0.31287235
-0.16130048 -0.02412759 0.3131915
-0.16077057 -0.024143979 0.31340426
-0.16013108 -0.024143979 0.31340426
-0.15949158 -0.024143979 0.31340426
-0.15890601 -0.024152173 0.31351063
-0.15837373 -0.024168566 0.31372342
-0.15778705 -0.02417676 0.31382978
-0.15714671 -0.02417676 0.31382978
-0.15650634 -0.02417676 0.31382978
-0.15586598 -0.02417676 0.31382978
-0.15527825 -0.024184957 0.31393617
-0.15479487 -0.024209544 0.31425533
-0.15446675 -0.024258714 0.3148936
-0.15413603 -0.024307888 0.31553191
-0.1539062 -0.024373453 0.31638297
-0.1536729 -0.024439016 0.31723404
-0.1533335 -0.02448819 0.31787235
-0.15288928 -0.024520971 0.31829786
-0.15239245 -0.024545558 0.31861702
-0.15184365 -0.024561949 0.31882977
-0.15129399 -0.024578342 0.31904256
-0.15069322 -0.024586536 0.31914893
-0.064609893 -0.018423511 0.23914893
-0.064178966 -0.018439902 0.2393617
-0.063803785 -0.018472685 0.23978724
-0.063454956 -0.018513661 0.24031915
-0.063076086 -0.018546443 0.24074468
-0.062695473 -0.018579226 0.24117021
-0.062340569 -0.018620204 0.24170212
-0.061956272 -0.018652985 0.24212766
-0.06154323 -0.018677572 0.24244681
-0.0045478903 -0.020431412 0.26521277
-0.0040083393 -0.020439606 0.26531914
-0.0034683547 -0.020447804 0.26542553
-0.0029302819 -0.020472391 0.26574469
-0.0023899507 -0.02048878 0.26595744
-0.0018502291 -0.020521563 0.26638299
-0.0013077272 -0.020537954 0.26659575
0.050718796 -0.022906456 0.29734042
0.051380601 -0.022931043 0.29765958
0.052043706 -0.02295563 0.29797873
0.052708115 -0.022980217 0.29829788
0.053411853 -0.023021193 0.29882979
0.054194685 -0.023094952 0.29978722
0.054981433 -0.023168713 0.30074468
0.055673752 -0.023201494 0.3011702
0.056228638 -0.023176908 0.30085108
0.056601312 -0.023078563 0.29957446
0.056948464 -0.022972021 0.29819149
0.057433706 -0.022922847 0.29755318
0.058123861 -0.02295563 0.29797873
0.059004463 -0.023062171 0.29936171
0.059933078 -0.023185104 0.30095744
0.060761195 -0.023267059 0.30202127
0.061528798 -0.023324428 0.30276597
0.062343106 -0.023398187 0.30372339
0.063183382 -0.023480143 0.30478725
0.064050265 -0.023570292 0.30595744
0.064787 -0.02361127 0.30648935
0.065366969 -0.023594879 0.30627659
0.065877311 -0.023553902 0.30574468
-0.12514487 -0.016116451 0.21489362
-0.12464464 -0.016108472 0.21478723
-0.12402183 -0.016084539 0.21446809
-0.12346161 -0.01606858 0.21425532
-0.12302443 -0.01606858 0.21425532
-0.12270898 -0.016084539 0.21446809
-0.12245332 -0.016108472 0.21478723
-0.12225679 -0.016140386 0.21521276
-0.1219983 -0.016164321 0.21553192
-0.12167851 -0.016180279 0.21574467
-0.12123829 -0.016180279 0.21574467
-0.12079807 -0.016180279 0.21574467
-0.16891688 -0.023392789 0.31191489
-0.16833782 -0.023400769 0.31202129
-0.1678727 -0.023424704 0.31234044
-0.16723537 -0.023424704 0.31234044
-0.16642782 -0.023400769 0.31202129
-0.16550852 -0.023360876 0.31148937
-0.1646477 -0.023328962 0.31106383
-0.1639569 -0.023320984 0.31095746
-0.16343415 -0.023336941 0.31117022
-0.16291052 -0.023352897 0.31138298
-0.16249691 -0.023384809 0.3118085
-0.16208158 -0.023416726 0.31223404
-0.1616095 -0.023440661 0.3125532
-0.16113612 -0.023464596 0.31287235
-0.16049771 -0.023464596 0.31287235
-0.1598593 -0.023464596 0.31287235
-0.15927503 -0.023472574 0.31297871
-0.15874426 -0.023488533 0.3131915
-0.15826631 -0.023512466 0.31351063
-0.15773357 -0.023528423 0.31372342
-0.15714671 -0.023536401 0.31382978
-0.15650634 -0.023536401 0.31382978
-0.15591882 -0.02354438 0.31393617
-0.1554361 -0.023568315 0.31425533
-0.15500447 -0.023600228 0.31468084
-0.1546755 -0.0236481 0.31531915
-0.15444784 -0.023711927 0.31617022
-0.15421671 -0.023775754 0.31702128
-0.1539821 -0.023839584 0.31787235
-0.15369271 -0.023895431 0.31861702
-0.15324698 -0.023927346 0.31904256
-0.064638637 -0.017943515 0.23925532
-0.064207494 -0.017959472 0.23946808
-0.063832089 -0.017991384 0.23989362
-0.063454956 -0.018023299 0.24031915
-0.063048214 -0.018047234 0.2406383
-0.062640168 -0.018071169 0.24095745
-0.062230814 -0.018095104 0.24127659
-0.061847385 -0.018127019 0.24170212
-0.061408211 -0.018142976 0.2419149
-0.0045551867 -0.019922167 0.26563829
-0.0040115537 -0.019914189 0.26553193
-0.0034683547 -0.019906212 0.26542553
-0.0029279359 -0.019914189 0.26553193
-0.0023880387 -0.019930147 0.26574469
-0.0018480124 -0.019954082 0.26606384
0.052229509 -0.022427399 0.29904255
0.053008873 -0.022499206 0.30000001
0.053830169 -0.022586966 0.3011702
0.054656245 -0.02267473 0.30234042
0.055428751 -0.022738557 0.30319148
0.056008074 -0.0227226 0.30297872
0.056407578 -0.022634838 0.30180851
0.056661613 -0.022491226 0.29989362
0.056948464 -0.022363571 0.29819149
0.057433706 -0.0223157 0.29755318
0.058165364 -0.022363571 0.29819149
0.059088334 -0.022483246 0.29978722
0.060039002 -0.022610901 0.30148935
0.060911015 -0.022706645 0.30276597
0.061658509 -0.022754513 0.30340424
0.062408615 -0.022802385 0.30404255
0.063183382 -0.022858236 0.30478725
0.063938908 -0.022906104 0.30542552
0.064629585 -0.022930039 0.30574468
0.065230742 -0.022922061 0.30563828
0.065785624 -0.022898126 0.30531916
0.066408619 -0.022898126 0.30531916
0.067101672 -0.022922061 0.30563828
-0.12495901 -0.015654685 0.21457447
-0.12445945 -0.015646923 0.21446809
-0.12389879 -0.0156314 0.21425532
-0.12346161 -0.0156314 0.21425532
-0.1231466 -0.015646923 0.21446809
-0.12283072 -0.015662445 0.21468085
-0.12257462 -0.01568573 0.215
-0.12231722 -0.015709013 0.21531914
-0.1219983 -0.015724536 0.21553192
-0.12161851 -0.015732298 0.21563829
-0.12123829 -0.015740059 0.21574467
-0.12079807 -0.015740059 0.21574467
-0.16943768 -0.022740815 0.31170213
-0.16885926 -0.022748575 0.3118085
-0.16816564 -0.022740815 0.31170213
-0.16747244 -0.022733053 0.31159574
-0.1667797 -0.022725293 0.31148937
-0.16597387 -0.022702008 0.31117022
-0.16516936 -0.022678724 0.31085107
-0.16442247 -0.022663202 0.31063831
-0.1638447 -0.022670962 0.31074467
