# .PCD v0.7 - Point Cloud Data file format
VERSION 0.7
FIELDS x y z
SIZE 4 4 4
TYPE F F F
COUNT 1 1 1
WIDTH 1377
HEIGHT 1
VIEWPOINT 0 0 0 1 0 0 0
POINTS 1377
DATA ascii
-0.066878662 0.082005732 0.31095746
-0.021605235 0.081164069 0.30776596
-0.021028006 0.081360452 0.30851063
-0.020447738 0.081556849 0.30925533
-0.019850798 0.081697121 0.30978724
-0.019238487 0.08178129 0.3101064
-0.018624872 0.081865445 0.31042552
-0.018009957 0.081949614 0.31074467
-0.017399687 0.082061842 0.31117022
-0.016776219 0.082117952 0.31138298
-0.016151881 0.082174055 0.31159574
-0.015521377 0.082202114 0.31170213
-0.014890439 0.082230166 0.3118085
-0.014254205 0.082230166 0.3118085
-0.013627263 0.082286283 0.31202129
-0.013003882 0.082370453 0.31234044
-0.012370773 0.082398504 0.3124468
-0.011713261 0.082258224 0.31191489
-0.011023918 0.081865445 0.31042552
-0.01032641 0.081360452 0.30851063
-0.0096467482 0.080939628 0.3069149
-0.0089986119 0.080743238 0.30617023
-0.0083709722 0.080715179 0.30606383
0.0053328606 0.080182128 0.30404255
0.0059553324 0.080210187 0.30414894
0.0065851384 0.080322407 0.30457446
0.0072191982 0.080462679 0.30510637
0.0078472262 0.080518797 0.30531916
0.0084613664 0.080434628 0.30500001
0.009067867 0.080294356 0.3044681
0.0096789673 0.080210187 0.30414894
0.010299573 0.080210187 0.30414894
0.010931637 0.080294356 0.3044681
0.011560967 0.080350466 0.30468085
0.012182659 0.080350466 0.30468085
0.012795408 0.080294356 0.3044681
0.013402602 0.080210187 0.30414894
0.014003587 0.080097966 0.30372339
0.014607958 0.080013797 0.30340424
0.015248401 0.080126025 0.30382979
0.015901692 0.080294356 0.3044681
0.016551817 0.080434628 0.30500001
0.017174158 0.080434628 0.30500001
0.017777879 0.080350466 0.30468085
0.018361023 0.080182128 0.30404255
0.018948203 0.080041856 0.30351064
0.019546932 0.079957686 0.30319148
0.022552807 0.079649076 0.30202127
0.023169072 0.079649076 0.30202127
0.023802094 0.079705194 0.30223405
0.024444576 0.079789355 0.30255318
0.025079552 0.079845473 0.30276597
0.025706364 0.079873517 0.30287233
0.026333611 0.079901576 0.30297872
0.026932903 0.079845473 0.30276597
0.027521646 0.079761304 0.30244681
0.028099187 0.079649076 0.30202127
0.028695222 0.079592966 0.30180851
0.029321386 0.079621024 0.3019149
0.029969079 0.079705194 0.30223405
0.030618072 0.079789355 0.30255318
0.031246407 0.079817414 0.30265957
0.031875174 0.079845473 0.30276597
0.03251579 0.079901576 0.30297872
0.033168912 0.079985745 0.30329788
0.033811484 0.080041856 0.30351064
0.034418717 0.080013797 0.30340424
0.035013232 0.079957686 0.30319148
0.035581876 0.079845473 0.30276597
0.036161501 0.079761304 0.30244681
0.036726885 0.079649076 0.30202127
0.037343152 0.079649076 0.30202127
0.037972786 0.079677135 0.30212766
0.038630031 0.079761304 0.30244681
0.039302383 0.079873517 0.30287233
0.039934408 0.079901576 0.30297872
0.040538386 0.079873517 0.30287233
0.041069653 0.079705194 0.30223405
0.041598309 0.079536863 0.30159575
0.042139255 0.079396583 0.30106384
0.042738456 0.079368524 0.30095744
0.043352552 0.079368524 0.30095744
0.044013269 0.079452693 0.30127659
0.044675291 0.079536863 0.30159575
0.045354586 0.079649076 0.30202127
0.046003237 0.079705194 0.30223405
0.046603527 0.079677135 0.30212766
0.047170125 0.079592966 0.30180851
0.047718585 0.079480752 0.30138299
0.048299421 0.079424635 0.3011702
0.048896674 0.079396583 0.30106384
0.049510982 0.079396583 0.30106384
0.050143003 0.079424635 0.3011702
0.050775461 0.079452693 0.30127659
0.051353917 0.079396583 0.30106384
0.051913135 0.079312414 0.30074468
0.052433893 0.079172142 0.30021277
0.052933682 0.079003803 0.29957446
0.05344988 0.078863531 0.29904255
0.054040834 0.078835472 0.29893616
0.054728601 0.078947701 0.29936171
0.055496763 0.079172142 0.30021277
0.056347929 0.079508804 0.30148935
0.057164107 0.079789355 0.30255318
0.057842407 0.079873517 0.30287233
0.058357738 0.079733245 0.30234042
0.058787897 0.079480752 0.30138299
0.05929802 0.079340473 0.30085108
-0.082288459 0.084788933 0.31904256
-0.08161024 0.084760658 0.31893617
-0.081013463 0.084817201 0.31914893
-0.072523519 0.084788933 0.31904256
-0.071896486 0.084817201 0.31914893
-0.071150288 0.084704116 0.31872341
-0.070146963 0.084280021 0.31712765
-0.068800449 0.083431855 0.31393617
-0.019271486 0.082555413 0.31063831
-0.01866317 0.082668498 0.31106383
-0.018053118 0.082781591 0.31148937
-0.017441329 0.082894675 0.31191489
-0.016833533 0.083036035 0.3124468
-0.016223568 0.083177403 0.31297871
-0.015606136 0.083290495 0.31340426
-0.014976805 0.083347037 0.31361702
-0.014341745 0.083375312 0.31372342
-0.013706247 0.08340358 0.31382978
-0.013070318 0.083431855 0.31393617
-0.012421318 0.083375312 0.31372342
-0.011749216 0.083149135 0.31287235
-0.01103903 0.082611956 0.31085107
-0.010329971 0.082018234 0.30861703
-0.0096400613 0.081509329 0.30670214
0.030639606 0.080463253 0.30276597
0.031268369 0.08049152 0.30287233
0.031897575 0.080519795 0.30297872
0.032538626 0.080576338 0.30319148
0.033203814 0.08068943 0.30361703
0.033847038 0.080745973 0.30382979
0.034454923 0.080717698 0.30372339
0.035037804 0.08063288 0.30340424
0.038670797 0.080463253 0.30276597
0.039357603 0.080604613 0.30329788
0.042738456 0.079982616 0.30095744
0.043352552 0.079982616 0.30095744
0.044028811 0.080095716 0.30138299
0.044785596 0.080350161 0.30234042
0.045530319 0.080576338 0.30319148
0.046181355 0.08063288 0.30340424
0.046751216 0.08054807 0.30308512
0.047269888 0.080378436 0.30244681
0.047785956 0.080208801 0.30180851
0.048350602 0.080123983 0.30148935
0.048983064 0.080152258 0.30159575
0.049633447 0.080208801 0.30180851
0.05032013 0.080321893 0.30223405
0.050990611 0.080406703 0.30255318
0.051607959 0.080406703 0.30255318
0.052170224 0.080321893 0.30223405
0.052656855 0.080123983 0.30148935
0.053121656 0.079897799 0.30063829
0.053582981 0.079671621 0.29978722
0.054156225 0.079615079 0.29957446
0.054845296 0.079728171 0.30000001
0.05565409 0.080010891 0.30106384
0.056526877 0.080378436 0.30244681
0.057345007 0.080661155 0.30351064
0.058045581 0.080774255 0.30393618
0.05856308 0.08063288 0.30340424
0.058974653 0.080350161 0.30234042
0.059465766 0.080180533 0.30170214
-0.081201918 0.084984094 0.31734043
-0.080662407 0.085098051 0.31776595
-0.080362253 0.085468411 0.31914893
-0.072906122 0.085126542 0.31787235
-0.07220915 0.085069567 0.31765959
-0.07170476 0.085240498 0.31829786
-0.018688701 0.083417177 0.31148937
-0.018083947 0.083559625 0.31202129
-0.017477021 0.083702065 0.3125532
-0.016873656 0.083873004 0.3131915
-0.016267683 0.084043935 0.31382978
-0.015659111 0.084214874 0.31446809
-0.01504285 0.084357321 0.315
-0.014409829 0.084414303 0.31521276
-0.013766648 0.084414303 0.31521276
-0.013119038 0.08438582 0.31510639
-0.012463438 0.084300347 0.31478724
0.045658123 0.08142291 0.30404255
0.046294704 0.081451401 0.30414894
0.046849672 0.081337437 0.30372339
0.04731977 0.08108104 0.30276597
0.047819644 0.080881603 0.30202127
0.048401788 0.080824628 0.30180851
0.049069453 0.080910102 0.30212766
0.049773406 0.081052542 0.30265957
0.050497249 0.08122348 0.30329788
0.051205762 0.081365928 0.30382979
0.051862009 0.08142291 0.30404255
0.052427307 0.081337437 0.30372339
0.052916985 0.081138015 0.30297872
0.053347226 0.080853119 0.3019149
0.053811159 0.080625206 0.30106384
0.05434854 0.080511242 0.30063829
0.055020329 0.080596715 0.30095744
0.055791751 0.080824628 0.30180851
0.056646176 0.081166506 0.30308512
0.057465609 0.081451401 0.30414894
0.05816748 0.081565358 0.30457446
0.05870682 0.081451401 0.30414894
0.059140664 0.081194989 0.30319148
-0.080527388 0.085602909 0.31723404
-0.073800892 0.086062215 0.31893617
-0.072637722 0.085459374 0.31670213
-0.018120939 0.084368527 0.31265956
-0.017506763 0.084483355 0.31308511
-0.016896581 0.084626883 0.31361702
-0.016289743 0.084799126 0.31425533
-0.015680298 0.084971361 0.3148936
-0.015068252 0.085143603 0.31553191
-0.014443872 0.085258432 0.31595746
-0.013803817 0.085287131 0.31606382
-0.013150042 0.085229725 0.31585106
0.046327088 0.082129419 0.3043617
0.046866082 0.081985883 0.30382979
0.047336392 0.08172752 0.30287233
0.047853336 0.081555292 0.30223405
0.048470031 0.081555292 0.30223405
0.04917312 0.08169882 0.30276597
0.049895871 0.081871055 0.30340424
0.05062123 0.082043298 0.30404255
0.051349197 0.08221554 0.30468085
0.052025329 0.082301661 0.30500001
0.052610945 0.082244247 0.30478725
0.053102788 0.082043298 0.30404255
0.053572796 0.081813641 0.30319148
0.054058347 0.081612699 0.30244681
0.054637019 0.081555292 0.30223405
0.055312056 0.081641398 0.30255318
0.056047402 0.081813641 0.30319148
0.05682512 0.082043298 0.30404255
0.05752591 0.082158126 0.3044681
0.05816748 0.082186826 0.30457446
0.05870682 0.082072005 0.30414894
0.059223671 0.081928477 0.30361703
-0.017524609 0.085208967 0.31340426
-0.016902313 0.085295737 0.31372342
-0.016289743 0.085440353 0.31425533
-0.015675003 0.085584976 0.31478724
-0.015063171 0.085758515 0.31542554
-0.014439009 0.085874207 0.31585106
-0.013803817 0.085932054 0.31606382
0.046229932 0.082576916 0.30372339
0.046800442 0.082490139 0.30340424
0.047336392 0.082345523 0.30287233
0.047920708 0.082287677 0.30265957
0.048589457 0.082374454 0.30297872
0.049276784 0.082490139 0.30340424
0.049983352 0.082634769 0.30393618
0.050674368 0.082750455 0.3043617
0.051367126 0.082866155 0.30478725
0.052025329 0.082924001 0.30500001
0.052629303 0.08289507 0.30489361
0.053177111 0.082779385 0.3044681
0.053723175 0.082663685 0.30404255
0.054343563 0.082663685 0.30404255
0.055040881 0.082779385 0.3044681
0.055856623 0.083068617 0.30553192
0.056598049 0.083242163 0.30617023
0.057242658 0.083271079 0.30627659
0.057686709 0.08301077 0.30531916
0.058147166 0.082779385 0.3044681
0.058624681 0.082576916 0.30372339
0.059182163 0.082490139 0.30340424
-0.017542455 0.085935883 0.31372342
-0.016913775 0.085994162 0.31393617
-0.016284227 0.08605244 0.31414893
-0.015659111 0.086139865 0.31446809
-0.015037769 0.086256422 0.3148936
-0.014414692 0.086372986 0.31531915
-0.013775941 0.086402133 0.31542554
0.046116587 0.082992665 0.30297872
0.046734802 0.082992665 0.30297872
0.047336392 0.082963526 0.30287233
0.048004925 0.083050951 0.30319148
0.048674762 0.083138369 0.30351064
0.049345899 0.083225794 0.30382979
0.050000843 0.083284073 0.30404255
0.050638944 0.083313219 0.30414894
0.051277477 0.083342351 0.30425531
0.051898301 0.083342351 0.30425531
0.052500762 0.083313219 0.30414894
0.053139947 0.083342351 0.30425531
0.053779569 0.083371498 0.3043617
0.054552723 0.083604619 0.30521277
0.055444743 0.084012598 0.30670214
0.056478985 0.084624551 0.30893618
0.057266682 0.084857672 0.30978724
0.05779938 0.084711969 0.30925533
0.057968102 0.08404173 0.3068085
0.058187798 0.083458923 0.30468085
0.05856308 0.08310923 0.30340424
-0.017554352 0.086634733 0.31393617
-0.016919507 0.086664088 0.31404254
-0.016284227 0.086693451 0.31414893
-0.015648516 0.086722814 0.31425533
-0.015012368 0.086752161 0.31436169
-0.014380651 0.086810887 0.31457448
-0.013738772 0.086810887 0.31457448
0.046100393 0.083581522 0.30287233
0.046701986 0.083552174 0.30276597
0.047353022 0.083610885 0.30297872
0.048055459 0.083757676 0.30351064
0.048725944 0.083845749 0.30382979
0.049363181 0.083875112 0.30393618
0.049948357 0.083816387 0.30372339
0.050550386 0.083787031 0.30361703
0.051134042 0.083728313 0.30340424
0.051716838 0.083669603 0.30319148
0.05233549 0.083669603 0.30319148
0.052991301 0.083728313 0.30340424
0.053704381 0.083875112 0.30393618
0.05457174 0.084256761 0.30531916
0.055540904 0.084785201 0.30723405
0.056751262 0.085665926 0.31042552
0.057738662 0.086194374 0.31234044
0.058157269 0.085871436 0.31117022
0.058269605 0.085108131 0.30840427
0.058330014 0.084286116 0.30542552
0.058624681 0.083816387 0.30372339
-0.017554352 0.087275311 0.31393617
-0.016913775 0.087275311 0.31393617
-0.016278712 0.087304883 0.31404254
-0.015643217 0.087334462 0.31414893
-0.014997127 0.087304883 0.31404254
-0.014356333 0.087304883 0.31404254
-0.013710895 0.087275311 0.31393617
0.045578245 0.084376976 0.30351064
0.046148971 0.084288254 0.30319148
0.046734802 0.084229104 0.30297872
0.047353022 0.084229104 0.30297872
0.048038613 0.084347397 0.30340424
0.048691824 0.084406555 0.30361703
0.049294066 0.084376976 0.30351064
0.04984339 0.084258683 0.30308512
0.050408687 0.084169954 0.30276597
0.050990611 0.084110804 0.30255318
0.051589817 0.084081233 0.30244681
0.052206948 0.084081233 0.30244681
0.05286124 0.084140375 0.30265957
0.053554002 0.084258683 0.30308512
0.054419626 0.084643155 0.3044681
0.055406276 0.085205071 0.30648935
0.058216918 0.086595096 0.31148937
0.058309805 0.085796572 0.30861703
0.058431599 0.085057199 0.30595744
0.058788955 0.084672727 0.30457446
-0.017530557 0.087796718 0.31351063
-0.016896581 0.087826513 0.31361702
-0.016273199 0.08791589 0.31393617
-0.015643217 0.087975472 0.31414893
-0.014997127 0.087945677 0.31404254
-0.01435147 0.08791589 0.31393617
-0.013701602 0.087856308 0.31372342
0.046229932 0.085055865 0.30372339
0.046800442 0.084966488 0.30340424
0.047369651 0.084877118 0.30308512
0.047988087 0.084877118 0.30308512
0.048606519 0.084877118 0.30308512
0.049190395 0.084817529 0.30287233
0.049755912 0.084728152 0.30255318
0.05032013 0.084638782 0.30223405
0.050936826 0.084638782 0.30223405
0.051553525 0.084638782 0.30223405
0.052170224 0.084638782 0.30223405
0.052805498 0.084668569 0.30234042
0.053478807 0.084757946 0.30265957
0.054267507 0.085026078 0.30361703
0.055002414 0.085204825 0.30425531
0.058189202 0.086247541 0.30797872
0.05851287 0.085800663 0.30638298
0.058953226 0.085532531 0.30542552
-0.017494867 0.088256374 0.31287235
-0.016873656 0.088346407 0.3131915
-0.01626217 0.088496447 0.31372342
-0.015637919 0.088586472 0.31404254
-0.015002207 0.088616483 0.31414893
-0.014356333 0.088586472 0.31404254
0.046310894 0.085825644 0.30425531
0.046866082 0.085705616 0.30382979
0.047402903 0.085555568 0.30329788
0.047971241 0.085465543 0.30297872
0.048538275 0.08537551 0.30265957
0.049104005 0.085285485 0.30234042
0.049668435 0.085195459 0.30202127
0.050266992 0.085165448 0.3019149
0.050918896 0.08522547 0.30212766
0.051571667 0.085285485 0.30234042
0.05222531 0.085345499 0.30255318
0.052879825 0.085405521 0.30276597
0.053535201 0.085465543 0.30297872
0.054267507 0.085645594 0.30361703
0.055060111 0.08591567 0.30457446
0.057640318 0.086996004 0.30840427
0.058088705 0.086725913 0.30744681
0.058573823 0.086515859 0.30670214
-0.017477021 0.088804103 0.3125532
-0.01685646 0.088894784 0.31287235
-0.016245628 0.089045912 0.31340426
-0.015632624 0.08919704 0.31393617
-0.015007288 0.089287721 0.31425533
-0.01436606 0.089287721 0.31425533
0.046391863 0.086597607 0.30478725
0.046948131 0.086476699 0.3043617
0.047452785 0.086265117 0.30361703
0.047971241 0.086083755 0.30297872
0.048504155 0.085932627 0.30244681
0.049052171 0.085811719 0.30202127
0.049633447 0.085751273 0.30180851
0.050266992 0.0857815 0.3019149
0.050936826 0.085872181 0.30223405
0.051626109 0.085993081 0.30265957
0.052317131 0.086113989 0.30308512
0.052972727 0.086174436 0.30329788
0.05362919 0.08623489 0.30351064
0.05436258 0.086416245 0.30414894
0.055156268 0.086688273 0.30510637
0.056090005 0.08717189 0.3068085
0.056991361 0.08759506 0.30829787
0.057640318 0.087625287 0.30840427
0.058149006 0.087443933 0.30776596
0.058634773 0.087232351 0.30702129
-0.018120939 0.089472294 0.31265956
-0.017488917 0.089502744 0.31276596
-0.016862191 0.089563623 0.31297871
-0.016240112 0.08965496 0.31329787
-0.015616731 0.089746289 0.31361702
-0.014992047 0.089837618 0.31393617
-0.014356333 0.089868054 0.31404254
0.046456631 0.087341279 0.30521277
0.047013771 0.087219514 0.30478725
0.047486037 0.086945519 0.30382979
0.047971241 0.086701974 0.30297872
0.04848709 0.086519316 0.30234042
0.049017616 0.0863671 0.30180851
0.049615957 0.086336665 0.30170214
0.050249279 0.0863671 0.30180851
0.050936826 0.08648888 0.30223405
0.051644254 0.086641088 0.30276597
0.05233549 0.08676286 0.30319148
0.052991301 0.086823747 0.30340424
0.053647988 0.08688464 0.30361703
0.05436258 0.087036848 0.30414894
0.055156268 0.087310836 0.30510637
0.056012213 0.08767616 0.30638298
0.056834035 0.087980583 0.30744681
0.057540905 0.088102363 0.30787235
0.058169108 0.088102363 0.30787235
-0.0181641 0.090324894 0.31340426
-0.017524609 0.090324894 0.31340426
-0.016885119 0.090324894 0.31340426
-0.016245628 0.090324894 0.31340426
-0.015606136 0.090324894 0.31340426
-0.014966645 0.090324894 0.31340426
-0.014332017 0.090355545 0.31351063
0.046997361 0.087810755 0.30468085
0.047486037 0.087565474 0.30382979
0.047954395 0.087289527 0.30287233
0.04845297 0.087074913 0.30212766
0.049000341 0.086952277 0.30170214
0.049580961 0.086890951 0.30148935
0.050213855 0.08692161 0.30159575
0.050900966 0.087044246 0.30202127
0.051607959 0.08719755 0.30255318
0.0522804 0.087289527 0.30287233
0.052935567 0.08735086 0.30308512
0.053591594 0.087412179 0.30329788
0.054267507 0.087504156 0.30361703
0.055002414 0.087688111 0.30425531
0.055778828 0.087933391 0.30510637
0.056558713 0.088178679 0.30595744
0.057302307 0.088362642 0.30659574
0.057988204 0.088454619 0.3069149
-0.018201092 0.091149643 0.31404254
-0.017554352 0.091118768 0.31393617
-0.016908044 0.091087893 0.31382978
-0.016251141 0.09099526 0.31351063
-0.015600838 0.090933502 0.31329787
-0.014951404 0.090871751 0.31308511
-0.014307701 0.090840869 0.31297871
0.046882492 0.088216312 0.30393618
0.047402903 0.088031046 0.30329788
0.04788702 0.08778403 0.30244681
0.04841885 0.087629639 0.3019149
0.048965782 0.08750613 0.30148935
0.049545974 0.087444372 0.30127659
0.050178431 0.087475255 0.30138299
0.05084718 0.087567888 0.30170214
0.05151723 0.087660514 0.30202127
0.052170224 0.087722272 0.30223405
0.052805498 0.087753147 0.30234042
0.053460009 0.087814897 0.30255318
0.054134402 0.08790753 0.30287233
0.054829333 0.088031046 0.30329788
0.055545446 0.08818543 0.30382979
0.056283396 0.088370696 0.3044681
0.057043832 0.088586837 0.30521277
-0.018225756 0.091914818 0.31446809
-0.017578145 0.091883719 0.31436169
-0.016919507 0.091790438 0.31404254
-0.01626217 0.091697156 0.31372342
-0.015606136 0.091603875 0.31340426
-0.014951404 0.091510594 0.31308511
-0.014307701 0.091479495 0.31297871
0.046718393 0.088525534 0.30287233
0.047286514 0.088432245 0.30255318
0.04783649 0.088307872 0.30212766
0.04838473 0.0881835 0.30170214
0.048948508 0.088090219 0.30138299
0.049528476 0.088028021 0.3011702
0.050143003 0.088028021 0.3011702
0.050775461 0.08805912 0.30127659
0.0514265 0.08812131 0.30148935
0.052060042 0.088152401 0.30159575
0.052675437 0.088152401 0.30159575
0.053328428 0.088214591 0.30180851
0.054020319 0.088338971 0.30223405
0.054733176 0.088494442 0.30276597
0.055428751 0.088618815 0.30319148
0.056145731 0.088774286 0.30372339
-0.01821959 0.092525162 0.31436169
-0.017566249 0.09246254 0.31414893
-0.016913775 0.092399925 0.31393617
-0.016256656 0.092305988 0.31361702
-0.015611432 0.092274673 0.31351063
-0.014961564 0.092212051 0.31329787
0.047220007 0.088924356 0.30212766
0.047785956 0.088830419 0.30180851
0.04838473 0.088799112 0.30170214
0.048965782 0.088736482 0.30148935
0.049545974 0.088673867 0.30127659
0.050125293 0.088611245 0.30106384
0.050739605 0.088611245 0.30106384
0.051335767 0.08857993 0.30095744
0.051949862 0.08857993 0.30095744
0.052563954 0.08857993 0.30095744
0.053215642 0.088642552 0.3011702
-0.018201092 0.09307202 0.31404254
-0.017548403 0.093008965 0.31382978
-0.016890848 0.09291438 0.31351063
-0.016240112 0.092851326 0.31329787
-0.015606136 0.092882857 0.31340426
-0.014971725 0.09291438 0.31351063
0.047153503 0.089414731 0.30170214
0.047769114 0.089414731 0.30170214
0.04838473 0.089414731 0.30170214
0.048965782 0.089351662 0.30148935
0.049545974 0.089288607 0.30127659
0.05010758 0.089194022 0.30095744
0.050685816 0.089130968 0.30074468
0.051281329 0.089099437 0.30063829
0.051858045 0.089036383 0.30042553
0.052452471 0.089004852 0.30031914
-0.075753227 0.095173113 0.31893617
-0.018176431 0.093585834 0.31361702
-0.017524609 0.093522348 0.31340426
-0.016867923 0.093427107 0.31308511
-0.016223568 0.09339536 0.31297871
-0.015595541 0.093458861 0.3131915
-0.014961564 0.093490601 0.31329787
0.047086995 0.089903355 0.30127659
0.047735423 0.089966841 0.30148935
0.048367668 0.089998595 0.30159575
0.048948508 0.089935102 0.30138299
0.049510982 0.089839868 0.30106384
0.050072156 0.089744627 0.30074468
0.05064996 0.089681141 0.30053192
0.051226888 0.08961764 0.30031914
0.051802956 0.089554153 0.30010638
0.052396733 0.089522414 0.30000001
-0.075475283 0.095472299 0.31776595
-0.018145602 0.094065949 0.31308511
-0.017506763 0.094065949 0.31308511
-0.016862191 0.094033986 0.31297871
-0.016218055 0.094002023 0.31287235
-0.015590244 0.094065949 0.31308511
-0.014956485 0.094097912 0.3131915
0.047020487 0.09039025 0.30085108
0.047668051 0.090454176 0.30106384
0.048299421 0.090486132 0.3011702
0.048879392 0.090422213 0.30095744
0.049458496 0.090358287 0.30074468
0.050019022 0.090262398 0.30042553
0.050614096 0.090230435 0.30031914
0.051226888 0.090230435 0.30031914
0.051821321 0.090198472 0.30021277
0.052433893 0.090198472 0.30021277
-0.08001402 0.096120693 0.31776595
-0.079711042 0.096539028 0.31914893
-0.076404005 0.09647467 0.31893617
-0.075273141 0.095863253 0.31691489
-0.018108608 0.09451171 0.3124468
-0.017488917 0.094608247 0.31276596
-0.01685646 0.094640434 0.31287235
-0.016223568 0.094672605 0.31297871
-0.015595541 0.094736971 0.3131915
-0.014961564 0.09476915 0.31329787
0.046357382 0.090907589 0.30053192
0.046987232 0.09093976 0.30063829
0.047617521 0.090971947 0.30074468
0.048214115 0.09093976 0.30063829
0.048810285 0.090907589 0.30053192
0.049371023 0.090811051 0.30021277
0.049965885 0.090778865 0.30010638
0.05059617 0.090811051 0.30021277
0.051263183 0.090907589 0.30053192
0.0519315 0.091004133 0.30085108
0.052563954 0.091036305 0.30095744
-0.078776307 0.093011059 0.30542552
-0.079133078 0.09417735 0.30925533
-0.079663239 0.0955704 0.31382978
-0.079826504 0.096542306 0.31702128
-0.079631329 0.097093046 0.31882977
-0.076302074 0.096995868 0.31851065
-0.075070992 0.096250735 0.31606382
-0.074125469 0.095861979 0.31478724
-0.018083947 0.095019661 0.31202129
-0.017471071 0.095149249 0.3124468
-0.01685646 0.095278837 0.31287235
-0.016223568 0.095311232 0.31297871
-0.015595541 0.09537603 0.3131915
-0.014971725 0.095473215 0.31351063
0.046340972 0.091488414 0.30042553
0.04695398 0.091488414 0.30042553
0.047566988 0.091488414 0.30042553
0.048162933 0.091456011 0.30031914
0.048741169 0.091391221 0.30010638
0.049318537 0.09132643 0.29989362
0.049930461 0.09132643 0.29989362
0.05057824 0.091391221 0.30010638
0.051299475 0.091585606 0.30074468
0.052023318 0.091779992 0.30138299
0.052694023 0.091877177 0.30170214
-0.078542195 0.092623241 0.30212766
-0.078693993 0.093536429 0.30510637
-0.079160295 0.094840981 0.3093617
-0.079582229 0.096112922 0.31351063
-0.079746142 0.09709134 0.31670213
-0.07960476 0.097711004 0.31872341
-0.07612367 0.097417474 0.31776595
-0.07499519 0.096797809 0.31574467
-0.018071614 0.095591098 0.3118085
-0.017459175 0.095721558 0.31223404
-0.016839266 0.095819399 0.3125532
-0.01621254 0.095884629 0.31276596
-0.015590244 0.09598247 0.31308511
-0.014971725 0.096112922 0.31351063
-0.014346607 0.096210763 0.31382978
0.046324559 0.092068806 0.30031914
0.04693735 0.092068806 0.30031914
0.0475333 0.092036195 0.30021277
0.048128814 0.092003576 0.30010638
0.048706613 0.091938354 0.29989362
0.049283549 0.091873132 0.29968086
0.049895037 0.091873132 0.29968086
0.05057824 0.092003576 0.30010638
0.051317625 0.092231885 0.30085108
0.052060042 0.092460178 0.30159575
0.052749757 0.09259063 0.30202127
-0.078266747 0.092189133 0.2987234
-0.078127362 0.092747264 0.30053192
-0.078584239 0.094027668 0.30468085
-0.079269186 0.095603555 0.30978724
-0.079852276 0.097080946 0.31457448
-0.079880081 0.097901709 0.31723404
-0.079657905 0.098427005 0.31893617
-0.077054784 0.098427005 0.31893617
-0.07594528 0.097836055 0.31702128
-0.074894123 0.097310759 0.31531915
-0.018065449 0.096194506 0.31170213
-0.017447278 0.096293002 0.31202129
-0.01682207 0.096358664 0.31223404
-0.016195996 0.096424319 0.3124468
-0.015574351 0.096522816 0.31276596
-0.014961564 0.096686967 0.31329787
0.046920728 0.092648774 0.30021277
0.0475333 0.092648774 0.30021277
0.048111755 0.092583112 0.30000001
0.048689336 0.092517443 0.29978722
0.049266052 0.092451781 0.29957446
0.049877323 0.092451781 0.29957446
0.050560314 0.092583112 0.30000001
0.051281329 0.092780091 0.30063829
0.052023318 0.093009911 0.30138299
0.052694023 0.093108408 0.30170214
-0.077820778 0.092269905 0.29702127
-0.077657208 0.092798673 0.2987234
-0.08036536 0.098350726 0.31659573
-0.080201536 0.098945595 0.31851065
-0.076900572 0.098879494 0.31829786
-0.075843334 0.098350726 0.31659573
-0.018053118 0.09676443 0.31148937
-0.017423483 0.096797474 0.31159574
-0.016793413 0.096830525 0.31170213
-0.016168425 0.096896619 0.31191489
-0.015547864 0.096995763 0.31223404
-0.014931082 0.097127952 0.31265956
0.046920728 0.093261346 0.30021277
0.0475333 0.093261346 0.30021277
0.048111755 0.093195252 0.30000001
0.048672061 0.093096107 0.29968086
0.049248554 0.093030006 0.29946807
0.049859609 0.093030006 0.29946807
0.050524451 0.093129151 0.29978722
0.051226888 0.09329439 0.30031914
0.051949862 0.093492679 0.30095744
0.052601114 0.093558773 0.3011702
-0.076874875 0.099495709 0.3181915
-0.075868823 0.099029996 0.31670213
-0.018022289 0.09723369 0.31095746
-0.017393738 0.09726695 0.31106383
-0.016764756 0.097300217 0.31117022
-0.016140852 0.09736675 0.31138298
-0.015510784 0.097400017 0.31148937
-0.014880279 0.097433276 0.31159574
0.046920728 0.093873918 0.30021277
0.047516454 0.093840651 0.30010638
0.048077628 0.093740858 0.29978722
0.048637498 0.093641058 0.29946807
0.049213566 0.093574531 0.29925531
0.049824186 0.093574531 0.29925531
0.050488595 0.093674324 0.29957446
0.051190596 0.093840651 0.30010638
0.051894769 0.094006978 0.30063829
0.052563954 0.094106771 0.30095744
-0.077705562 0.10037934 0.31893617
-0.076874875 0.10014497 0.3181915
-0.017979128 0.097633809 0.31021276
-0.017358046 0.097700767 0.31042552
-0.016736098 0.09776774 0.31063831
-0.016113279 0.097834706 0.31085107
-0.015478998 0.097834706 0.31085107
-0.014844717 0.097834706 0.31085107
0.046887476 0.094419532 0.30000001
0.04748277 0.094386049 0.29989362
0.048026446 0.09425211 0.29946807
0.048585672 0.094151676 0.29914895
0.049178578 0.094118185 0.29904255
0.049806476 0.094151676 0.29914895
0.050470665 0.09425211 0.29946807
0.051172454 0.094419532 0.30000001
0.051894769 0.094620414 0.30063829
0.052563954 0.094720863 0.30095744
-0.078382485 0.10106383 0.31904256
-0.077601895 0.10089533 0.31851065
-0.076874875 0.10079423 0.3181915
-0.0179483 0.098098293 0.30968085
-0.017328303 0.098165691 0.30989361
-0.01671317 0.098266788 0.31021276
-0.01609122 0.098334186 0.31042552
-0.015457808 0.098334186 0.31042552
-0.014824395 0.098334186 0.31042552
0.046837594 0.094930574 0.29968086
0.047415391 0.094863169 0.29946807
0.047975268 0.094762079 0.29914895
0.048551112 0.094694674 0.29893616
0.04916108 0.094694674 0.29893616
0.049788762 0.094728373 0.29904255
0.050452739 0.094829477 0.29936171
0.051154304 0.094997972 0.29989362
0.051876411 0.095200166 0.30053192
0.052545376 0.095301263 0.30085108
-0.078277938 0.10157915 0.31861702
-0.077524133 0.10144349 0.3181915
-0.076823466 0.10137565 0.31797871
-0.017942134 0.098696269 0.30957446
-0.017316407 0.098730184 0.30968085
-0.016701708 0.098831937 0.31
-0.016080193 0.098899767 0.31021276
-0.015452512 0.098933689 0.31031916
-0.014824395 0.098967597 0.31042552
0.046820965 0.095508143 0.29957446
0.047398549 0.095440313 0.29936171
0.047958203 0.095338561 0.29904255
0.048533835 0.095270731 0.29882979
0.04916108 0.095304638 0.29893616
0.049788762 0.095338561 0.29904255
0.050452739 0.095440313 0.29936171
0.051118016 0.095542058 0.29968086
0.051821321 0.095711641 0.30021277
0.052471053 0.095779471 0.30042553
-0.078277938 0.10222927 0.31861702
-0.077524133 0.10209275 0.3181915
-0.07684917 0.10205861 0.3180851
-0.017954467 0.099396214 0.30978724
-0.017328303 0.099430345 0.30989361
-0.016707441 0.099498615 0.3101064
-0.016085707 0.099566884 0.31031916
-0.015463106 0.099635147 0.31053191
-0.014834557 0.099669285 0.31063831
0.046854217 0.096187681 0.29978722
0.047432236 0.096119411 0.29957446
0.047975268 0.095982887 0.29914895
0.048551112 0.09591461 0.29893616
0.04916108 0.09591461 0.29893616
0.049788762 0.095948748 0.29904255
0.050416879 0.095982887 0.29914895
0.051045425 0.096017011 0.29925531
0.051711138 0.096119411 0.29957446
0.052340992 0.09615355 0.29968086
-0.078382485 0.10301681 0.31904256
-0.077679642 0.1029481 0.31882977
-0.077003382 0.10291376 0.31872341
-0.017979128 0.10016572 0.31021276
-0.017346149 0.10016572 0.31021276
-0.016718904 0.10020008 0.31031916
-0.016102251 0.10030313 0.31063831
-0.015484297 0.10040618 0.31095746
-0.014859959 0.10047488 0.31117022
0.046970606 0.097039841 0.30053192
0.0475333 0.096936792 0.30021277
0.048043508 0.096730687 0.29957446
0.048585672 0.096593291 0.29914895
0.049178578 0.096558936 0.29904255
0.049771048 0.096524581 0.29893616
0.050363094 0.096490234 0.29882979
0.050972845 0.096490234 0.29882979
0.051600955 0.096524581 0.29893616
0.052229509 0.096558936 0.29904255
-0.017997626 0.10090241 0.31053191
-0.017363995 0.10090241 0.31053191
-0.016730366 0.10090241 0.31053191
-0.016107764 0.10097153 0.31074467
-0.015494891 0.10110981 0.31117022
-0.014870118 0.10117894 0.31138298
0.047053739 0.097825907 0.30106384
0.047600675 0.097687632 0.30063829
0.04809469 0.097445659 0.29989362
0.048602946 0.09723825 0.29925531
0.04916108 0.097134553 0.29893616
0.049735624 0.097065419 0.2987234
0.050309304 0.096996285 0.29851064
0.050900258 0.096961714 0.29840425
0.051509142 0.096961714 0.29840425
0.052136607 0.096996285 0.29851064
-0.018009957 0.1016056 0.31074467
-0.017369945 0.10157082 0.31063831
-0.016730366 0.10153604 0.31053191
-0.016107764 0.1016056 0.31074467
-0.015489593 0.10170995 0.31106383
0.047037113 0.098405428 0.30095744
0.047600675 0.098301075 0.30063829
0.04809469 0.098057583 0.29989362
0.048585672 0.097814098 0.29914895
0.049126092 0.097674951 0.2987234
0.049682491 0.097570598 0.29840425
0.050255515 0.097501032 0.29819149
0.050827675 0.097431466 0.29797873
0.051454049 0.097466245 0.29808509
0.052062284 0.097466245 0.29808509
-0.018016122 0.10227467 0.31085107
-0.017369945 0.10220467 0.31063831
-0.016724633 0.10213466 0.31042552
-0.01609122 0.10213466 0.31042552
-0.015468404 0.10220467 0.31063831
0.04695398 0.098844513 0.30042553
0.047516454 0.098739505 0.30010638
0.048026446 0.098529495 0.29946807
0.048533835 0.098319493 0.29882979
0.049073607 0.098179482 0.29840425
0.049647067 0.098109484 0.29819149
0.050219659 0.098039478 0.29797873
0.050791383 0.09796948 0.29776597
0.051380601 0.09793447 0.29765958
0.051987965 0.09793447 0.29765958
-0.080905452 0.10551514 0.31872341
-0.080281891 0.10555035 0.31882977
-0.079711042 0.10565601 0.31914893
-0.018083947 0.10329636 0.31202129
-0.017369945 0.10283852 0.31063831
-0.01671317 0.10269764 0.31021276
-0.016080193 0.10269764 0.31021276
-0.015447213 0.10269764 0.31021276
0.046854217 0.099246204 0.29978722
0.047432236 0.099175774 0.29957446
0.047958203 0.098999679 0.29904255
0.048482001 0.098823585 0.29851064
0.049038615 0.098717928 0.29819149
0.049611643 0.098647498 0.29797873
0.050183803 0.09857706 0.29776597
0.050755087 0.098506615 0.29755318
0.051325507 0.098436177 0.29734042
0.051913638 0.098400958 0.29723403
-0.080308683 0.10623635 0.31893617
-0.07960476 0.10616548 0.31872341
-0.018151769 0.10432282 0.3131915
-0.017358046 0.10340149 0.31042552
-0.016707441 0.10329518 0.3101064
-0.016069164 0.10325975 0.31
-0.01543662 0.10325975 0.31
0.046787713 0.099716172 0.29936171
0.047364864 0.099645302 0.29914895
0.047907021 0.099503554 0.2987234
0.048447445 0.099361822 0.29829788
0.049003627 0.09925551 0.29797873
0.049593929 0.099220075 0.29787233
0.050183803 0.09918464 0.29776597
0.050755087 0.099113762 0.29755318
0.051307142 0.099007457 0.29723403
0.051876478 0.098936588 0.29702127
-0.079525054 0.10670886 0.31840426
-0.078980766 0.10685147 0.31882977
-0.078408614 0.10695843 0.31914893
-0.018182596 0.10514014 0.31372342
-0.017328303 0.10385664 0.30989361
-0.016684514 0.10378534 0.30968085
-0.01605262 0.10378534 0.30968085
-0.015415429 0.10374968 0.30957446
0.046787713 0.10032701 0.29936171
0.047364864 0.10025571 0.29914895
0.047889963 0.10007744 0.29861704
0.048412886 0.099899173 0.29808509
0.048986129 0.099827871 0.29787233
0.049576219 0.09979222 0.29776597
0.050165869 0.099756569 0.29765958
0.050755087 0.09972091 0.29755318
0.051307142 0.09961395 0.29723403
0.051876478 0.099542648 0.29702127
-0.079471909 0.10728682 0.3181915
-0.078875355 0.10735856 0.31840426
-0.078251801 0.10739443 0.31851065
-0.077627808 0.10743029 0.31861702
-0.018114774 0.10538571 0.3125532
-0.017280715 0.104202 0.30904254
-0.016650124 0.104202 0.30904254
-0.016019532 0.104202 0.30904254
-0.015378348 0.10413027 0.30882978
-0.01472279 0.10395092 0.30829787
0.046787713 0.10093785 0.29936171
0.047348019 0.10083024 0.29904255
0.047872901 0.10065089 0.29851064
0.048395611 0.10047154 0.29797873
0.048951142 0.10036393 0.29765958
0.049540792 0.10032806 0.29755318
0.050147939 0.10032806 0.29755318
0.050718796 0.10025632 0.29734042
0.051288784 0.10018458 0.29712766
0.051876478 0.10014871 0.29702127
-0.079392202 0.10782782 0.31787235
-0.078743592 0.10782782 0.31787235
-0.078121118 0.1078639 0.31797871
-0.017972965 0.10519347 0.3101064
-0.017227178 0.10450782 0.30808511
-0.016604271 0.1045439 0.30819148
-0.015980933 0.10457999 0.30829787
-0.015341266 0.10450782 0.30808511
-0.014682147 0.1042913 0.30744681
0.046771083 0.1015126 0.29925531
0.047331173 0.10140433 0.29893616
0.047855839 0.1012239 0.29840425
0.048378333 0.10104347 0.29787233
0.048933644 0.10093521 0.29755318
0.049505368 0.10086303 0.29734042
0.05009415 0.10082694 0.29723403
0.050700646 0.10082694 0.29723403
0.051288784 0.10079086 0.29712766
0.051876478 0.10075477 0.29702127
-0.079312488 0.10836751 0.31755319
-0.078611828 0.1082949 0.31734043
-0.077990435 0.1083312 0.3174468
-0.017861981 0.10517275 0.30819148
-0.017191486 0.10491863 0.30744681
-0.016569883 0.10495494 0.3075532
-0.01595336 0.10502754 0.30776596
-0.015309482 0.10491863 0.30744681
-0.014651665 0.1047008 0.3068085
-0.014006179 0.10455559 0.30638298
0.046687949 0.1019417 0.2987234
0.047263797 0.10186909 0.29851064
0.047804654 0.10172387 0.29808509
0.048343778 0.10157866 0.29765958
0.048898656 0.10146975 0.29734042
0.049469944 0.10139714 0.29712766
0.050076224 0.10139714 0.29712766
0.050682504 0.10139714 0.29712766
0.051288784 0.10139714 0.29712766
0.051876478 0.10136084 0.29702127
-0.079206198 0.10886938 0.31712765
-0.07850641 0.10879634 0.31691489
-0.077807486 0.1087233 0.31670213
-0.017806491 0.10547292 0.30723405
-0.01717959 0.10547292 0.30723405
-0.01655842 0.10550944 0.30734041
-0.015942331 0.10558249 0.3075532
-0.015304184 0.10550944 0.30734041
-0.014656745 0.10536336 0.3069149
0.046604816 0.10236863 0.29819149
0.04717958 0.10229558 0.29797873
0.047736414 0.10218602 0.29765958
0.048291944 0.10207646 0.29734042
0.048863668 0.10200342 0.29712766
0.04945223 0.1019669 0.29702127
0.050076224 0.10200342 0.29712766
0.050682504 0.10200342 0.29712766
0.051288784 0.10200342 0.29712766
0.051895063 0.10200342 0.29712766
-0.079153061 0.10944299 0.31691489
-0.078427345 0.10933278 0.31659573
-0.077729076 0.1092593 0.31638297
-0.018458921 0.10624677 0.30765957
-0.017824987 0.10621004 0.3075532
-0.017191486 0.1061733 0.30744681
-0.016569883 0.10621004 0.3075532
-0.01595336 0.10628352 0.30776596
-0.015325374 0.10628352 0.30776596
-0.014677065 0.10613655 0.30734041
0.046505056 0.10275665 0.29755318
0.047095362 0.10271992 0.29744682
0.047668166 0.10264643 0.29723403
0.048240107 0.10257296 0.29702127
0.048828676 0.10253622 0.29691491
0.04941681 0.10249949 0.29680851
0.050040368 0.10253622 0.29691491
0.050664354 0.10257296 0.29702127
0.051288784 0.1026097 0.29712766
0.051895063 0.1026097 0.29712766
-0.080040805 0.11042225 0.31787235
-0.079099923 0.11001574 0.31670213
-0.078400999 0.10994183 0.31648937
-0.077729076 0.10990487 0.31638297
-0.017831152 0.10687454 0.30765957
-0.017197436 0.10683759 0.3075532
-0.016575614 0.10687454 0.30765957
-0.015964389 0.10698541 0.30797872
-0.015341266 0.10702237 0.30808511
0.04648843 0.10332684 0.29744682
0.047078516 0.10328989 0.29734042
0.047634047 0.10317902 0.29702127
0.048205554 0.10310511 0.29680851
0.048793685 0.10306815 0.29670212
0.049381386 0.1030312 0.29659575
0.050004505 0.10306815 0.29670212
0.050628066 0.10310511 0.29680851
0.051252056 0.10314207 0.29691491
0.051857904 0.10314207 0.29691491
-0.07966578 0.11055044 0.31638297
-0.079046786 0.11058762 0.31648937
-0.078374647 0.11055044 0.31638297
-0.07770294 0.11051328 0.31627661
-0.017818822 0.10742797 0.30744681
-0.017185537 0.10739079 0.30734041
-0.016569883 0.10746515 0.3075532
-0.015964389 0.10761383 0.30797872
-0.015346562 0.10768817 0.30819148
0.046521682 0.10400812 0.29765958
0.047112204 0.10397094 0.29755318
0.047651108 0.10382225 0.29712766
0.048205554 0.10371074 0.29680851
0.048776191 0.1036364 0.29659575
0.049363673 0.10359922 0.29648936
0.049950723 0.10356206 0.29638299
0.050573625 0.10359922 0.29648936
0.051178601 0.10359922 0.29648936
0.051802162 0.1036364 0.29659575
-0.080095313 0.11089689 0.31553191
-0.079505056 0.11097167 0.31574467
-0.078967072 0.11112124 0.31617022
-0.078348294 0.11115862 0.31627661
-0.07770294 0.11115862 0.31627661
-0.017769495 0.10775619 0.30659574
-0.017155794 0.10783096 0.3068085
-0.016552689 0.10798053 0.30723405
-0.015947845 0.10813008 0.30765957
-0.015335969 0.10824225 0.30797872
0.04658819 0.10476504 0.29808509
0.047162734 0.10469026 0.29787233
0.04770229 0.10454071 0.29744682
0.048240107 0.10439114 0.29702127
0.048776191 0.10424159 0.29659575
0.049345963 0.10416681 0.29638299
0.049914859 0.10409202 0.2961702
0.050519187 0.10409202 0.2961702
0.051141877 0.10412942 0.2962766
0.051746417 0.10412942 0.2962766
-0.079852276 0.11120228 0.31457448
-0.079371117 0.1114279 0.31521276
-0.07886079 0.11161594 0.31574467
-0.078269236 0.11169116 0.31595746
-0.077650666 0.11172876 0.31606382
-0.017714003 0.10804332 0.30563828
-0.017120104 0.10823137 0.30617023
-0.016524032 0.1084194 0.30670214
-0.015931301 0.10864503 0.30734041
-0.015325374 0.10879546 0.30776596
-0.014707548 0.10887067 0.30797872
0.046604816 0.10541087 0.29819149
0.04717958 0.10533567 0.29797873
0.047719348 0.10518523 0.29755318
0.048240107 0.1049972 0.29702127
0.048776191 0.10484678 0.29659575
0.049310535 0.10469636 0.2961702
0.049896933 0.10465875 0.29606384
0.050482895 0.10462114 0.29595745
0.051105149 0.10465875 0.29606384
0.051690675 0.10462114 0.29595745
-0.079690248 0.11161721 0.31393617
-0.079290755 0.11195762 0.3148936
-0.078807652 0.11218456 0.31553191
-0.07819017 0.11222239 0.3156383
-0.077467717 0.11210892 0.31531915
-0.017677011 0.10844003 0.30500001
-0.01709036 0.10866697 0.30563828
-0.016506836 0.10893174 0.30638298
-0.015914759 0.10915869 0.30702129
-0.015314779 0.1093478 0.3075532
-0.014702468 0.10946127 0.30787235
0.046538312 0.10586804 0.29776597
0.047112204 0.10579238 0.29755318
0.047668166 0.10567891 0.29723403
0.048205554 0.10552762 0.29680851
0.048741203 0.10537633 0.29638299
0.049292825 0.10526286 0.29606384
0.049879003 0.10522503 0.29595745
0.050464746 0.10518721 0.29585105
0.051068421 0.10518721 0.29585105
0.051653516 0.10514939 0.29574469
0.052238174 0.10511156 0.29563829
-0.080140278 0.1119915 0.3131915
-0.079663239 0.11221974 0.31382978
-0.07926397 0.11256211 0.31478724
-0.078727938 0.11271427 0.31521276
-0.078058407 0.11267623 0.31510639
-0.077232487 0.11240994 0.31436169
-0.018273821 0.10891021 0.30457446
-0.017670844 0.10902433 0.30489361
-0.017084412 0.10925258 0.30553192
-0.016501104 0.10951886 0.30627659
-0.01590373 0.10970906 0.3068085
-0.015304184 0.10989926 0.30734041
-0.014687227 0.10997535 0.3075532
0.046405297 0.1061713 0.29691491
0.046994299 0.10613325 0.29680851
0.047582861 0.1060952 0.29670212
0.048136443 0.10598109 0.29638299
0.048688717 0.10586697 0.29606384
0.049257398 0.10579088 0.29585105
0.049843147 0.10575285 0.29574469
0.050446603 0.10575285 0.29574469
0.051013336 0.10567677 0.29553193
0.051579192 0.10560068 0.29531914
0.052144188 0.1055246 0.29510638
-0.080194719 0.11270708 0.31340426
-0.079690248 0.11289836 0.31393617
-0.07926397 0.11320443 0.31478724
-0.078674801 0.11328094 0.315
-0.077900283 0.11308965 0.31446809
-0.076997265 0.11270708 0.31340426
-0.076202258 0.11247753 0.31276596
-0.018305736 0.10972297 0.30510637
-0.017695509 0.1097995 0.30531916
-0.017102258 0.10999078 0.30585107
-0.016501104 0.11014381 0.30627659
-0.015898217 0.11029685 0.30670214
-0.015293589 0.11044987 0.30712765
0.046322163 0.10658585 0.29638299
0.046910077 0.10654759 0.2962766
0.047497559 0.10650933 0.2961702
0.048067328 0.10643282 0.29595745
0.048653722 0.10639455 0.29585105
0.049221974 0.10631804 0.29563829
0.049825214 0.10631804 0.29563829
0.050410312 0.10627979 0.29553193
0.050976604 0.10620327 0.29531914
0.051504873 0.10605024 0.29489362
0.052069001 0.10597373 0.29468086
-0.080358043 0.1135774 0.31404254
-0.079825267 0.11373131 0.31446809
-0.079317547 0.11392368 0.315
-0.078648224 0.1138852 0.3148936
-0.077794865 0.1135774 0.31404254
-0.076814301 0.11307724 0.31265956
-0.075968981 0.11276944 0.3118085
-0.018350415 0.11061486 0.30585107
-0.017732501 0.11065333 0.30595744
-0.017126052 0.11076876 0.30627659
-0.016512567 0.1108457 0.30648935
-0.015898217 0.11092266 0.30670214
-0.015282994 0.11099961 0.3069149
0.046876393 0.10707518 0.29606384
0.047463439 0.10703671 0.29595745
0.048032776 0.10695976 0.29574469
0.048601244 0.10688281 0.29553193
0.049168836 0.10680585 0.29531914
0.049771428 0.10680585 0.29531914
0.050374016 0.10680585 0.29531914
0.05093988 0.10672891 0.29510638
0.051467713 0.10657501 0.29468086
0.052031402 0.10649806 0.29446808
-0.080548599 0.11448905 0.31478724
-0.079960294 0.11456643 0.315
-0.079397909 0.11468251 0.31531915
-0.078674801 0.11456643 0.315
-0.077794865 0.1142182 0.31404254
-0.076788172 0.11367653 0.3125532
-0.075943068 0.11336698 0.31170213
-0.018375946 0.11139371 0.30627659
-0.017757164 0.1114324 0.30638298
-0.017137948 0.11147108 0.30648935
-0.016518299 0.11150978 0.30659574
-0.015892701 0.11150978 0.30659574
-0.015267102 0.11150978 0.30659574
0.046859547 0.1076406 0.29595745
0.047446374 0.1076019 0.29585105
0.04799822 0.10748584 0.29553193
0.048548758 0.10736976 0.29521278
0.049133416 0.10733106 0.29510638
0.049735568 0.10733106 0.29510638
0.050319575 0.10729237 0.29499999
0.050903153 0.10725369 0.29489362
0.051449131 0.10713761 0.29457447
0.052031402 0.10709891 0.29446808
-0.080766372 0.11544263 0.3156383
-0.080149323 0.11548153 0.31574467
-0.079478271 0.11544263 0.3156383
-0.078727938 0.11528699 0.31521276
-0.077847578 0.11493682 0.31425533
-0.076918855 0.11450882 0.31308511
-0.076098584 0.11423646 0.31234044
-0.018382329 0.11205756 0.30638298
-0.01776333 0.11209647 0.30648935
-0.017143898 0.11213537 0.30659574
-0.016518299 0.11213537 0.30659574
-0.015887186 0.11209647 0.30648935
-0.01525121 0.11201864 0.30627659
0.046842702 0.10820558 0.29585105
0.047429316 0.10816667 0.29574469
0.04796366 0.10801103 0.29531914
0.048513763 0.10789431 0.29499999
0.049080279 0.10781649 0.29478723
0.049681783 0.10781649 0.29478723
0.050283283 0.10781649 0.29478723
0.050866429 0.10777759 0.29468086
0.051430549 0.10769976 0.29446808
0.052012607 0.10766086 0.29436171
-0.080984145 0.11639969 0.31648937
-0.08028435 0.11632144 0.31627661
-0.079558633 0.11620406 0.31595746
-0.078781083 0.11600843 0.31542554
-0.077926643 0.11569542 0.31457448
-0.077049531 0.11534329 0.31361702
-0.076280013 0.11514766 0.31308511
-0.018388711 0.11272185 0.30648935
-0.017769495 0.11276098 0.30659574
-0.017143898 0.11276098 0.30659574
-0.016512567 0.11272185 0.30648935
-0.015865128 0.11256535 0.30606383
-0.015224723 0.11244797 0.30574468
0.046809014 0.108731 0.29563829
0.047395196 0.10869188 0.29553193
0.047946386 0.1085745 0.29521278
0.048496272 0.10845713 0.29489362
0.049062569 0.10837887 0.29468086
0.049645923 0.10833974 0.29457447
0.050246991 0.10833974 0.29457447
0.050848063 0.10833974 0.29457447
0.051411971 0.1082615 0.29436171
0.05199381 0.10822237 0.29425532
-0.08114747 0.11728153 0.31712765
-0.08036536 0.11708482 0.31659573
-0.079558633 0.11684877 0.31595746
-0.078727938 0.11657336 0.31521276
-0.077900283 0.11629796 0.31446809
-0.077075675 0.11602256 0.31372342
-0.076357774 0.11590453 0.31340426
-0.018395094 0.11338657 0.30659574
-0.017775662 0.11342592 0.30670214
-0.017143898 0.11338657 0.30659574
-0.016495373 0.11322921 0.30617023
-0.015837556 0.11299314 0.30553192
-0.015192938 0.11283576 0.30510637
0.046792172 0.10929491 0.29553193
0.047378134 0.10925556 0.29542553
0.047946386 0.10917687 0.29521278
0.048513763 0.10909818 0.29499999
0.049062569 0.10898016 0.29468086
0.049645923 0.10894081 0.29457447
0.050228845 0.10890146 0.29446808
0.050811335 0.10886213 0.29436171
0.05139339 0.10882279 0.29425532
0.051956214 0.1087441 0.29404256
-0.081174694 0.11796818 0.31723404
-0.08036536 0.11773082 0.31659573
-0.079505056 0.11741433 0.31574467
-0.078674801 0.11713742 0.315
-0.07787393 0.11690006 0.31436169
-0.077101804 0.11670226 0.31382978
-0.018401477 0.11405174 0.30670214
-0.017775662 0.11405174 0.30670214
-0.017137948 0.1139726 0.30648935
-0.016478179 0.11373525 0.30585107
-0.015815498 0.11345833 0.30510637
-0.01517175 0.11330009 0.30468085
0.046775326 0.10985836 0.29542553
0.047361072 0.1098188 0.29531914
0.047946386 0.10977925 0.29521278
0.048496272 0.10966057 0.29489362
0.049062569 0.10958145 0.29468086
0.049627993 0.10950232 0.29446808
0.050210703 0.10946277 0.29436171
0.050774608 0.10938364 0.29414892
0.05135623 0.10934408 0.29404256
0.051937416 0.10930452 0.29393616
-0.081822 0.11861549 0.31723404
-0.081065811 0.11845638 0.31680852
-0.080257341 0.11821771 0.31617022
-0.079397909 0.1178995 0.31531915
-0.078595087 0.11766084 0.31468084
-0.077794865 0.11742216 0.31404254
-0.077075675 0.11730284 0.31372342
-0.018395094 0.11463777 0.30659574
-0.01776333 0.11459799 0.30648935
-0.017126052 0.11451843 0.30627659
-0.016466714 0.11427977 0.30563828
-0.015809985 0.11404111 0.30500001
0.046724796 0.11034184 0.29510638
0.047326948 0.11034184 0.29510638
0.047911827 0.11030205 0.29499999
0.048496272 0.11026228 0.29489362
0.049062569 0.11018273 0.29468086
0.049610067 0.1100634 0.29436171
0.050192554 0.11002362 0.29425532
0.050756246 0.10994407 0.29404256
0.051337648 0.10990429 0.29393616
-0.081629932 0.11898284 0.31648937
-0.08090248 0.11886285 0.31617022
-0.080095313 0.11862288 0.31553191
-0.079290755 0.11838292 0.3148936
-0.078488812 0.11814296 0.31425533
-0.077742167 0.11798298 0.31382978
-0.077023394 0.11786299 0.31351063
-0.018369563 0.11510339 0.30617023
-0.017738668 0.1150634 0.30606383
-0.017108206 0.1150234 0.30595744
-0.016466714 0.11490341 0.30563828
-0.015821012 0.11474344 0.30521277
0.046657424 0.11078402 0.29468086
0.047258709 0.11078402 0.29468086
0.047859997 0.11078402 0.29468086
0.048443787 0.11074402 0.29457447
0.049027141 0.11070402 0.29446808
0.049592134 0.11062404 0.29425532
0.050156262 0.11054405 0.29404256
0.05073788 0.11050405 0.29393616
0.051337648 0.11050405 0.29393616
-0.081382975 0.11926671 0.31553191
-0.080711931 0.11922651 0.31542554
-0.079960294 0.11906566 0.315
-0.079183608 0.1188646 0.31446809
-0.078382522 0.11862333 0.31382978
-0.077636756 0.1184625 0.31340426
-0.076918855 0.11834186 0.31308511
-0.018337648 0.11552706 0.30563828
-0.017714003 0.11552706 0.30563828
-0.017096309 0.11556727 0.30574468
-0.016472446 0.11556727 0.30574468
-0.015843069 0.11552706 0.30563828
0.046606891 0.11126467 0.29436171
0.047207527 0.11126467 0.29436171
0.047790881 0.11122446 0.29425532
0.048373803 0.11118424 0.29414892
0.048956294 0.11114404 0.29404256
0.049538348 0.11110382 0.29393616
0.05011997 0.11106361 0.2938298
0.050701156 0.1110234 0.2937234
0.051300488 0.1110234 0.2937234
-0.081136033 0.1195467 0.31457448
-0.080548599 0.11962755 0.31478724
-0.079879276 0.11958712 0.31468084
