# .PCD v0.7 - Point Cloud Data file format
VERSION 0.7
FIELDS x y z
SIZE 4 4 4
TYPE F F F
COUNT 1 1 1
WIDTH 1348
HEIGHT 1
VIEWPOINT 0 0 0 1 0 0 0
POINTS 1348
DATA ascii
-0.062478047 0.06125626 0.27734041
-0.061912142 0.06125626 0.27734041
-0.06134624 0.06125626 0.27734041
-0.060780335 0.06125626 0.27734041
-0.06021443 0.06125626 0.27734041
-0.059671409 0.061279759 0.27744681
-0.059150614 0.06132675 0.27765957
-0.058651399 0.061397243 0.27797872
-0.058128648 0.061444234 0.27819148
-0.057561006 0.061444234 0.27819148
-0.056949779 0.061397243 0.27797872
-0.056253105 0.06125626 0.27734041
-0.055452239 0.060997799 0.27617022
-0.054634996 0.060715836 0.27489361
-0.054032233 0.060668841 0.27468085
-0.053596016 0.060809825 0.27531916
-0.053198174 0.060997799 0.27617022
-0.052796859 0.061185773 0.27702129
-0.052271724 0.061232768 0.27723405
-0.051666357 0.061185773 0.27702129
-0.051022604 0.061091784 0.27659574
-0.05043881 0.061068285 0.27648935
-0.049893834 0.061091784 0.27659574
-0.049291506 0.061044794 0.27638298
-0.048633777 0.060927309 0.27585107
-0.047978219 0.060809825 0.27531916
-0.047398116 0.060786325 0.27521276
-0.046890866 0.060856815 0.27553192
-0.046400201 0.060950801 0.27595744
-0.045819454 0.060927309 0.27585107
-0.045204226 0.060856815 0.27553192
-0.028077748 0.045090437 0.20414893
-0.027661188 0.045090437 0.20414893
-0.027244629 0.045090437 0.20414893
-0.026828069 0.045090437 0.20414893
-0.026411511 0.045090437 0.20414893
-0.026008498 0.045113932 0.20425531
-0.025605053 0.045137431 0.20436171
-0.02520117 0.045160927 0.20446809
-0.022756614 0.059494 0.2693617
-0.022180678 0.05942351 0.26904255
-0.021580383 0.059282526 0.26840425
-0.020991033 0.059165042 0.26787233
-0.02042821 0.059118051 0.26765957
-0.019921571 0.059235536 0.26819149
-0.019451186 0.059470501 0.26925531
-0.018991398 0.059752468 0.27053192
-0.018519148 0.060010932 0.27170214
-0.018006952 0.060151909 0.27234042
0.022080913 0.060363382 0.27329788
0.022594508 0.060245901 0.27276596
0.023123991 0.060175408 0.27244681
0.02365217 0.060104918 0.27212766
0.024188511 0.060057927 0.2719149
0.024714302 0.059987433 0.27159575
0.02524869 0.059940442 0.27138299
0.025792321 0.059916943 0.27127659
0.026345853 0.059916943 0.27127659
0.026888832 0.059893444 0.2711702
0.027442148 0.059893444 0.2711702
0.028039394 0.059987433 0.27159575
0.028739175 0.060292892 0.27297872
0.029535938 0.060786325 0.27521276
0.030365085 0.06132675 0.27765957
0.03112126 0.061702702 0.2793617
0.031715423 0.061749693 0.27957445
0.032163031 0.061514728 0.27851063
0.032481275 0.061044794 0.27638298
0.032727238 0.060457367 0.27372339
0.032975283 0.059893444 0.2711702
0.033331294 0.059540991 0.26957446
0.033801127 0.059400011 0.26893616
-0.14826804 0.062201586 0.27904254
-0.14775498 0.062225305 0.27914894
-0.14735366 0.062296446 0.27946809
-0.14695105 0.062367588 0.27978724
-0.14649145 0.062415015 0.28
-0.14597557 0.06243873 0.2801064
-0.14540403 0.06243873 0.2801064
-0.14488748 0.062462442 0.28021276
-0.14442529 0.062509865 0.28042552
-0.088776588 0.063221291 0.28361702
-0.088462539 0.063410997 0.28446808
-0.088112146 0.063576996 0.28521276
-0.087562829 0.063600712 0.28531915
-0.086786054 0.063458428 0.28468084
-0.085850812 0.063197568 0.28351063
-0.084888361 0.062913008 0.28223404
-0.084090017 0.062747009 0.28148937
-0.083452508 0.062699579 0.28127658
-0.082972616 0.062770724 0.28159574
-0.082522549 0.062865578 0.28202128
-0.082039826 0.062936723 0.28234044
-0.08152511 0.062984146 0.2825532
-0.080948569 0.062984146 0.2825532
-0.080250986 0.062889293 0.28212765
-0.079465009 0.062723294 0.28138298
-0.078771554 0.062628441 0.28095746
-0.078227878 0.062652156 0.28106382
-0.077830732 0.062794439 0.28170213
-0.077430978 0.062936723 0.28234044
-0.076970704 0.063031577 0.28276595
-0.076422468 0.063055292 0.28287235
-0.075816751 0.063031577 0.28276595
-0.075183168 0.062984146 0.2825532
-0.074522354 0.062913008 0.28223404
-0.073807105 0.062794439 0.28170213
-0.073094025 0.062675871 0.28117022
-0.072437987 0.062604725 0.28085107
-0.071864918 0.062604725 0.28085107
-0.071399868 0.062699579 0.28127658
-0.070879512 0.062747009 0.28148937
-0.070251994 0.062699579 0.28127658
-0.069546297 0.06258101 0.28074467
-0.068842761 0.062462442 0.28021276
-0.068219163 0.062415015 0.28
-0.067622125 0.0623913 0.27989361
-0.067051016 0.0623913 0.27989361
-0.066429369 0.062343873 0.27968085
-0.06578353 0.062272731 0.2793617
-0.065089338 0.062154159 0.27882978
-0.064421929 0.062059309 0.27840427
-0.063756257 0.061964449 0.27797872
-0.063140683 0.061917022 0.27776596
-0.06257391 0.061917022 0.27776596
-0.062030889 0.061940741 0.27787235
-0.061487429 0.061964449 0.27797872
-0.060896911 0.061940741 0.27787235
-0.060306825 0.061917022 0.27776596
-0.059740052 0.061917022 0.27776596
-0.059195943 0.061940741 0.27787235
-0.058673847 0.061988164 0.27808511
-0.058106422 0.061988164 0.27808511
-0.057516985 0.061964449 0.27797872
-0.056862604 0.061869595 0.2775532
-0.056145217 0.061703596 0.2768085
-0.055388156 0.061490174 0.27585107
-0.054677282 0.061324172 0.27510637
-0.054074086 0.061276745 0.27489361
-0.053616721 0.061395314 0.27542552
-0.053218663 0.061585028 0.27627659
-0.052776583 0.061727311 0.27691489
-0.052251663 0.061774738 0.27712765
-0.051646512 0.061727311 0.27691489
-0.051042229 0.061679885 0.27670214
-0.050497033 0.061703596 0.2768085
-0.049951404 0.061727311 0.27691489
-0.049348425 0.061679885 0.27670214
-0.048671287 0.061537601 0.27606383
-0.048015296 0.061419033 0.27553192
-0.047416441 0.061371606 0.27531916
-0.046890866 0.061419033 0.27553192
-0.046382319 0.061490174 0.27585107
-0.045819454 0.061490174 0.27585107
-0.045204226 0.061419033 0.27553192
-0.044624776 0.061395314 0.27542552
-0.044284027 0.061703596 0.2768085
-0.044189673 0.062367588 0.27978724
-0.041890152 0.062343873 0.27968085
-0.040832251 0.061608743 0.27638298
-0.028121643 0.045578137 0.20446809
-0.027704433 0.045578137 0.20446809
-0.027258826 0.045530707 0.20425531
-0.026828069 0.045506995 0.20414893
-0.026397748 0.045483284 0.20404255
-0.025981406 0.045483284 0.20404255
-0.025578393 0.045506995 0.20414893
-0.025174946 0.045530707 0.20425531
-0.022756614 0.060043626 0.2693617
-0.022163138 0.059925053 0.26882979
-0.021563279 0.05978277 0.26819149
-0.020982698 0.059687916 0.26776597
-0.02042821 0.059664201 0.26765957
-0.019913668 0.059759054 0.26808509
-0.01942813 0.059948765 0.26893616
-0.018961525 0.060209621 0.27010638
-0.018482892 0.060446758 0.2711702
-0.017971782 0.060589042 0.27180851
0.022072319 0.060897324 0.27319148
0.02260332 0.060826179 0.27287233
0.023133021 0.060755044 0.27255321
0.023661416 0.060683902 0.27223405
0.024197971 0.060636468 0.27202126
0.024723982 0.060565334 0.27170214
0.02524869 0.060494188 0.27138299
0.025782205 0.060446758 0.2711702
0.02632519 0.060423046 0.27106383
0.026878286 0.060423046 0.27106383
0.027452914 0.060470473 0.27127659
0.028094308 0.060660183 0.27212766
0.028839977 0.061063323 0.27393618
0.029707193 0.061703596 0.2768085
0.030597769 0.062367588 0.27978724
0.031393841 0.062818155 0.28180853
0.03200506 0.062889293 0.28212765
0.032433312 0.062604725 0.28085107
0.032681316 0.061988164 0.27808511
0.032867152 0.061276745 0.27489361
0.033078779 0.060636468 0.27202126
0.033423372 0.060257051 0.27031916
0.033894725 0.060114767 0.26968086
-0.14860719 0.06291455 0.27968085
-0.14803652 0.06291455 0.27968085
-0.14746584 0.06291455 0.27968085
-0.14700691 0.062962413 0.27989361
-0.14649145 0.062986344 0.28
-0.14597557 0.063010275 0.2801064
-0.14540403 0.063010275 0.2801064
-0.14477746 0.062986344 0.28
-0.14420614 0.062986344 0.28
-0.086850911 0.064087167 0.2848936
-0.085850812 0.063776068 0.28351063
-0.084824368 0.063441038 0.28202128
-0.083994672 0.063249588 0.28117022
-0.083389387 0.063225657 0.28106382
-0.082909927 0.063297451 0.28138298
-0.082460292 0.063393176 0.28180853
-0.082008913 0.063488893 0.28223404
-0.081494413 0.063536756 0.2824468
-0.080918089 0.063536756 0.2824468
-0.080160208 0.063393176 0.28180853
-0.079344839 0.063201725 0.28095746
-0.078622416 0.063082069 0.28042552
-0.078050219 0.063082069 0.28042552
-0.077654377 0.063225657 0.28106382
-0.077285103 0.063393176 0.28180853
-0.076912791 0.063560687 0.2825532
-0.076422468 0.063632481 0.28287235
-0.0758738 0.063656412 0.28297871
-0.07526809 0.063632481 0.28287235
-0.074578531 0.063536756 0.2824468
-0.073807105 0.063369244 0.28170213
-0.073066361 0.063225657 0.28106382
-0.072437987 0.063177794 0.28085107
-0.071892142 0.063201725 0.28095746
-0.071372867 0.063249588 0.28117022
-0.07079915 0.063249588 0.28117022
-0.070119143 0.063153863 0.28074467
-0.069414526 0.063034207 0.28021276
-0.068764351 0.062962413 0.27989361
-0.068167329 0.062938482 0.27978724
-0.067596428 0.062938482 0.27978724
-0.067076504 0.062986344 0.28
-0.066555709 0.063034207 0.28021276
-0.065983944 0.063034207 0.28021276
-0.065337673 0.062962413 0.27989361
-0.06464348 0.062842757 0.2793617
-0.063902654 0.062675245 0.27861702
-0.063261598 0.062603451 0.27829787
-0.062693737 0.062603451 0.27829787
-0.062149633 0.062627383 0.27840427
-0.061605085 0.062651306 0.27851063
-0.061013483 0.062627383 0.27840427
-0.060399208 0.062579513 0.27819148
-0.059808694 0.062555589 0.27808511
-0.059241269 0.062555589 0.27808511
-0.058673847 0.062555589 0.27808511
-0.05808419 0.062531658 0.27797872
-0.057428941 0.062435936 0.2775532
-0.056775421 0.062340207 0.27712765
-0.056080483 0.06219662 0.27648935
-0.055388156 0.06205304 0.27585107
-0.054719575 0.061933383 0.27531916
-0.054157794 0.061933383 0.27531916
-0.053658143 0.062005177 0.27563831
-0.053198174 0.062124833 0.27617022
-0.052736033 0.062244486 0.27670214
-0.052191488 0.062268414 0.2768085
-0.051626667 0.062268414 0.2768085
-0.051081475 0.062292349 0.27691489
-0.050555252 0.062340207 0.27712765
-0.050028164 0.062388066 0.27734041
-0.049424313 0.062340207 0.27712765
-0.048727557 0.062172692 0.27638298
-0.048052371 0.062029105 0.27574468
-0.047434758 0.061957311 0.27542552
-0.046890866 0.061981246 0.27553192
-0.046364427 0.062029105 0.27574468
-0.045819454 0.06205304 0.27585107
-0.045221683 0.062005177 0.27563831
-0.044659249 0.062005177 0.27563831
-0.044147875 0.062076963 0.27595744
-0.043685608 0.062220555 0.27659574
-0.043237317 0.062388066 0.27734041
-0.04270415 0.062435936 0.2775532
-0.042105507 0.062388066 0.27734041
-0.041444004 0.062244486 0.27670214
-0.040800821 0.062124833 0.27617022
-0.040175304 0.062029105 0.27574468
-0.028150905 0.04604321 0.20468085
-0.027718846 0.046019278 0.20457447
-0.027273025 0.04597142 0.20436171
-0.026828069 0.045923553 0.20414893
-0.026383985 0.045875695 0.20393617
-0.025967861 0.045875695 0.20393617
-0.025551736 0.045875695 0.20393617
-0.025161834 0.045923553 0.20414893
-0.024745274 0.045923553 0.20414893
-0.030433148 0.061670143 0.27414894
-0.029862164 0.061646208 0.27404255
-0.029302988 0.061646208 0.27404255
-0.028743813 0.061646208 0.27404255
-0.023389081 0.060808629 0.27031916
-0.022747625 0.060569312 0.26925531
-0.022128053 0.060377866 0.26840425
-0.021529065 0.060234286 0.26776597
-0.020957688 0.060162492 0.26744682
-0.020420089 0.06018642 0.26755318
-0.019905766 0.060282145 0.26797873
-0.01941276 0.06044966 0.2687234
-0.018939121 0.060688969 0.26978722
-0.01846114 0.060928285 0.27085108
-0.01795068 0.061071865 0.27148935
-0.017423984 0.06116759 0.2719149
0.022080913 0.061478693 0.27329788
0.022620946 0.061430834 0.27308512
0.023151079 0.06135904 0.27276596
0.023670662 0.061263312 0.27234042
0.024197971 0.061191518 0.27202126
0.024723982 0.061119732 0.27170214
0.02524869 0.061047938 0.27138299
0.025782205 0.061000071 0.2711702
0.02632519 0.060976144 0.27106383
0.026899382 0.061024003 0.27127659
0.027495978 0.061119732 0.27170214
0.028160207 0.06135904 0.27276596
0.028940775 0.061837658 0.27489361
0.02983278 0.062531658 0.27797872
0.030760644 0.063273512 0.28127658
0.031583454 0.063776068 0.28351063
0.032210223 0.063871793 0.28393617
0.032629877 0.063560687 0.2825532
0.032868851 0.06291455 0.27968085
0.033032507 0.062148761 0.27627659
0.033246953 0.061502621 0.27340424
0.03360752 0.061143659 0.27180851
0.034095284 0.061024003 0.27127659
-0.14934811 0.063557677 0.28
-0.14872025 0.063533522 0.27989361
-0.14814913 0.063533522 0.27989361
-0.14752194 0.063509382 0.27978724
-0.14695105 0.063509382 0.27978724
-0.14649145 0.063557677 0.28
-0.14603101 0.063605972 0.28021276
-0.14551447 0.063630119 0.28031915
-0.14488748 0.063605972 0.28021276
-0.078532942 0.063581824 0.2801064
-0.077931784 0.063557677 0.28
-0.077566199 0.063726708 0.28074467
-0.077226751 0.063919894 0.28159574
-0.076883823 0.064113081 0.2824468
-0.076393731 0.064185522 0.28276595
-0.0758738 0.064233817 0.28297871
-0.072465427 0.06377501 0.28095746
-0.071892142 0.06377501 0.28095746
-0.071372867 0.063823305 0.28117022
-0.070691995 0.063726708 0.28074467
-0.06995973 0.063581824 0.2801064
-0.069282763 0.063485228 0.27968085
-0.068633676 0.063412786 0.2793617
-0.068089567 0.063436933 0.27946809
-0.067570724 0.063485228 0.27968085
-0.067611687 0.064064786 0.28223404
-0.067616954 0.064620189 0.28468084
-0.064951837 0.064282119 0.2831915
-0.063817792 0.063726708 0.28074467
-0.062909432 0.063388646 0.27925533
-0.062220879 0.063267902 0.27872342
-0.061675679 0.063292049 0.27882978
-0.061060108 0.063243754 0.27861702
-0.060445409 0.06319546 0.27840427
-0.059831567 0.063147157 0.27819148
-0.059241269 0.06312301 0.27808511
-0.058628954 0.063074715 0.27787235
-0.057995278 0.063002273 0.2775532
-0.05734089 0.062905677 0.27712765
-0.056688245 0.062809087 0.27670214
-0.056037329 0.062712491 0.27627659
-0.055388156 0.062615901 0.27585107
-0.054783005 0.062567607 0.27563831
-0.054199647 0.062543459 0.27553192
-0.053678848 0.062591754 0.27574468
-0.053198174 0.062688351 0.27617022
-0.052695479 0.062760785 0.27648935
-0.052171431 0.062809087 0.27670214
-0.051646512 0.062857382 0.27691489
-0.051140349 0.062929824 0.27723405
-0.050632883 0.063002273 0.2775532
-0.050104924 0.063050568 0.27776596
-0.049481232 0.062978119 0.27744681
-0.048802577 0.062833235 0.2768085
-0.04812653 0.062688351 0.27617022
-0.047471404 0.062567607 0.27563831
-0.046890866 0.062543459 0.27553192
-0.046346545 0.062567607 0.27563831
-0.045819454 0.062615901 0.27585107
-0.045274038 0.062640049 0.27595744
-0.044710957 0.062640049 0.27595744
-0.044181917 0.062688351 0.27617022
-0.043685608 0.06278494 0.27659574
-0.043204147 0.062905677 0.27712765
-0.042655047 0.062929824 0.27723405
-0.04205706 0.062881537 0.27702129
-0.041412134 0.062760785 0.27648935
-0.04075367 0.062615901 0.27585107
-0.040051304 0.062398568 0.27489361
-0.028311851 0.046726484 0.20585106
-0.027704433 0.046412557 0.20446809
-0.027258826 0.046364259 0.20425531
-0.02681409 0.046315964 0.20404255
-0.026370222 0.04626767 0.20382978
-0.025954314 0.04626767 0.20382978
-0.025551736 0.046291817 0.20393617
-0.025161834 0.046340112 0.20414893
-0.024758169 0.046364259 0.20425531
-0.031004565 0.062253676 0.27425531
-0.030444955 0.062253676 0.27425531
-0.029873757 0.062229533 0.27414894
-0.029314365 0.062229533 0.27414894
-0.028743813 0.062205382 0.27404255
-0.028184639 0.062205382 0.27404255
-0.027614743 0.062181238 0.27393618
-0.027034767 0.06213294 0.27372339
-0.026465956 0.062108796 0.27361703
-0.025897576 0.062084645 0.27351063
-0.025339486 0.062084645 0.27351063
-0.02476212 0.06203635 0.27329788
-0.024110248 0.06179487 0.27223405
-0.023425898 0.061456796 0.27074468
-0.022756614 0.061142869 0.2693617
-0.022101741 0.06085309 0.26808509
-0.021494851 0.060684055 0.26734042
-0.020932678 0.06063576 0.26712766
-0.020403851 0.060684055 0.26734042
-0.019889962 0.060780652 0.26776597
-0.019405076 0.060973838 0.26861703
-0.018924184 0.061191164 0.26957446
-0.018439386 0.061408501 0.27053192
-0.017943647 0.061601687 0.27138299
-0.017423984 0.061722424 0.2719149
-0.016895549 0.061819013 0.27234042
-0.016371761 0.061939754 0.27287233
-0.015833471 0.062012199 0.27319148
-0.01528793 0.062060494 0.27340424
-0.014730058 0.062060494 0.27340424
-0.014155643 0.061988056 0.27308512
0.022620946 0.061988056 0.27308512
0.023142047 0.061891459 0.27265957
0.023642922 0.061746567 0.27202126
0.024160121 0.061649978 0.27159575
0.024694942 0.061601687 0.27138299
0.025228892 0.061553385 0.2711702
0.025782205 0.061553385 0.2711702
0.026345853 0.061577536 0.27127659
0.026931031 0.061649978 0.27159575
0.027539041 0.061770719 0.27212766
0.028226102 0.062060494 0.27340424
0.028996775 0.062519304 0.27542552
0.029889867 0.063219599 0.27851063
0.030795548 0.063919894 0.28159574
0.031595308 0.064378709 0.28361702
0.032222293 0.064475305 0.28404257
0.032629877 0.064137228 0.2825532
0.032881357 0.063509382 0.27978724
0.033070665 0.06278494 0.27659574
0.033350445 0.062253676 0.27425531
0.03375221 0.061963905 0.27297872
0.034255736 0.061867315 0.27255321
-0.14951834 0.0642021 0.28031915
-0.14883332 0.064153373 0.2801064
-0.14814913 0.064104639 0.27989361
-0.14752194 0.064080276 0.27978724
-0.14689517 0.064055912 0.27968085
-0.1464358 0.064104639 0.27989361
-0.14603101 0.064177737 0.28021276
-0.14562492 0.064250834 0.28053191
-0.14505249 0.064250834 0.28053191
-0.069177352 0.063958451 0.27925533
-0.062244624 0.06386099 0.27882978
-0.061675679 0.06386099 0.27882978
-0.061060108 0.063812263 0.27861702
-0.060445409 0.063763529 0.27840427
-0.059831567 0.063714795 0.27819148
-0.059218604 0.063666068 0.27797872
-0.058606505 0.063617341 0.27776596
-0.057906359 0.063471146 0.27712765
-0.057208817 0.063324951 0.27648935
-0.056579269 0.063251868 0.27617022
-0.055972595 0.063203126 0.27595744
-0.055388156 0.06317877 0.27585107
-0.054804146 0.063154399 0.27574468
-0.054220576 0.063130036 0.27563831
-0.053678848 0.063154399 0.27574468
-0.053177681 0.063227497 0.27606383
-0.052695479 0.063324951 0.27648935
-0.052211545 0.063422419 0.27691489
-0.051706035 0.063495517 0.27723405
-0.051199224 0.063568614 0.2775532
-0.050671697 0.063617341 0.27776596
-0.050104924 0.063617341 0.27776596
-0.049500208 0.063568614 0.2775532
-0.048840091 0.063446783 0.27702129
-0.048163604 0.063300595 0.27638298
-0.047508046 0.06317877 0.27585107
-0.046872761 0.063081302 0.27542552
-0.046310764 0.063081302 0.27542552
-0.045784112 0.063130036 0.27563831
-0.045274038 0.063203126 0.27595744
-0.044762667 0.063276224 0.27627659
-0.044232968 0.063324951 0.27648935
-0.043702409 0.063373692 0.27670214
-0.043170977 0.063422419 0.27691489
-0.042605944 0.063422419 0.27691489
-0.042008605 0.063373692 0.27670214
-0.041348401 0.063227497 0.27606383
-0.040675085 0.063056946 0.27531916
-0.039818808 0.062594004 0.27329788
-0.028443534 0.0473658 0.20680851
-0.027690018 0.046805404 0.20436171
-0.027230432 0.046732306 0.20404255
-0.026786128 0.046683576 0.20382978
-0.026370222 0.046683576 0.20382978
-0.025967861 0.046707943 0.20393617
-0.025578393 0.046756674 0.20414893
-0.025188059 0.046805404 0.20436171
-0.02478396 0.046829768 0.20446809
-0.031564172 0.062813289 0.27425531
-0.031004565 0.062813289 0.27425531
-0.030456766 0.062837653 0.2743617
-0.029885346 0.062813289 0.27425531
-0.029325739 0.062813289 0.27425531
-0.028754974 0.062788926 0.27414894
-0.028184639 0.062764555 0.27404255
-0.027614743 0.062740199 0.27393618
-0.027034767 0.062691465 0.27372339
-0.026465956 0.062667102 0.27361703
-0.025897576 0.062642731 0.27351063
-0.025339486 0.062642731 0.27351063
-0.024752481 0.062569633 0.27319148
-0.024129091 0.062399082 0.27244681
-0.023453511 0.062082335 0.27106383
-0.022756614 0.061692495 0.2693617
-0.022092972 0.061375748 0.26797873
-0.021477744 0.061180826 0.26712766
-0.020916006 0.061132099 0.2669149
-0.020387614 0.061180826 0.26712766
-0.019882059 0.061302651 0.26765957
-0.019397391 0.061497573 0.26851064
-0.018916717 0.061716862 0.2694681
-0.018432135 0.061936144 0.27042553
-0.017929578 0.062106699 0.2711702
-0.017417166 0.06225289 0.27180851
-0.01688895 0.062350355 0.27223405
-0.016358996 0.062447812 0.27265957
-0.01582114 0.062520906 0.27297872
-0.015270085 0.062545277 0.27308512
-0.014707132 0.062520906 0.27297872
-0.0141391 0.06247218 0.27276596
-0.013566637 0.062399082 0.27244681
-0.013000559 0.062350355 0.27223405
-0.01242562 0.06225289 0.27180851
-0.011861712 0.062204164 0.27159575
-0.011298672 0.062155433 0.27138299
-0.010744925 0.062155433 0.27138299
-0.010195171 0.062179793 0.27148935
-0.0096487626 0.062228531 0.27170214
-0.0090943631 0.062228531 0.27170214
-0.0085299332 0.062155433 0.27138299
-0.0079636779 0.062057968 0.27095744
0.023078844 0.062277257 0.2719149
0.023568951 0.062106699 0.2711702
0.024074947 0.061984874 0.27063829
0.024617497 0.061960511 0.27053192
0.025179405 0.061984874 0.27063829
0.025751865 0.062033609 0.27085108
0.026335519 0.062106699 0.2711702
0.026931031 0.062204164 0.27159575
0.027560571 0.062374715 0.27234042
0.02824807 0.062667102 0.27361703
0.028996775 0.063081302 0.27542552
0.029821366 0.063641705 0.27787235
0.030644303 0.064177737 0.28021276
0.031381987 0.064518847 0.28170213
0.031968862 0.064543217 0.28180853
0.032371886 0.0642021 0.28031915
0.032668814 0.063666068 0.27797872
0.032956194 0.063130036 0.27563831
0.033311639 0.062740199 0.27393618
0.033778518 0.062569633 0.27319148
-0.1494616 0.064749502 0.28021276
-0.14883332 0.064724922 0.2801064
-0.14809284 0.064651176 0.27978724
-0.14740974 0.064602003 0.27957445
-0.14683928 0.064602003 0.27957445
-0.14638014 0.064651176 0.27978724
-0.14603101 0.064749502 0.28021276
-0.14573535 0.064872414 0.28074467
-0.14532752 0.06494616 0.28106382
-0.056513887 0.063741632 0.27585107
-0.055951022 0.063741632 0.27585107
-0.055366792 0.063717045 0.27574468
-0.054804146 0.063717045 0.27574468
-0.054220576 0.063692473 0.27563831
-0.053678848 0.063717045 0.27574468
-0.053177681 0.063790798 0.27606383
-0.052715756 0.063913703 0.27659574
-0.052231606 0.064012036 0.27702129
-0.051725872 0.064085782 0.27734041
-0.051218841 0.064159527 0.27765957
-0.050671697 0.064184114 0.27776596
-0.050085731 0.064159527 0.27765957
-0.049481232 0.064110361 0.27744681
-0.048840091 0.064012036 0.27702129
-0.048163604 0.063864544 0.27638298
-0.047471404 0.063692473 0.27563831
-0.046800345 0.063544974 0.27500001
-0.046185553 0.063471228 0.27468085
-0.04567809 0.063544974 0.27500001
-0.045204226 0.063667886 0.27553192
-0.044762667 0.063839957 0.27627659
-0.044249989 0.063913703 0.27659574
-0.043702409 0.06393829 0.27670214
-0.043137807 0.06393829 0.27670214
-0.042556837 0.063913703 0.27659574
-0.041944001 0.063839957 0.27627659
-0.041300599 0.063717045 0.27574468
-0.040627934 0.063544974 0.27500001
-0.039586317 0.062782928 0.27170214
-0.02850206 0.047886115 0.20723404
-0.027632361 0.047124069 0.20393617
-0.027187839 0.047074903 0.2037234
-0.026772149 0.047074903 0.2037234
-0.026370222 0.047099482 0.20382978
-0.025981406 0.047148649 0.20404255
-0.025605053 0.047222398 0.20436171
-0.025240507 0.047320727 0.20478724
-0.02483554 0.047345307 0.20489362
-0.031527445 0.063299157 0.27393618
-0.030980512 0.063323736 0.27404255
-0.030444955 0.063372895 0.27425531
-0.029896941 0.063397482 0.2743617
-0.029325739 0.063372895 0.27425531
-0.028754974 0.063348316 0.27414894
-0.028184639 0.063323736 0.27404255
-0.027614743 0.063299157 0.27393618
-0.027045276 0.06327457 0.27382979
-0.026476244 0.063249983 0.27372339
-0.025907651 0.063225411 0.27361703
-0.025339486 0.063200824 0.27351063
-0.024742844 0.063102499 0.27308512
-0.024110248 0.062905841 0.27223405
-0.023435103 0.06258627 0.27085108
-0.022747625 0.062217534 0.26925531
-0.022084201 0.061897967 0.26787233
-0.021477744 0.061725892 0.26712766
-0.020916006 0.061676729 0.2669149
-0.020379493 0.061701309 0.26702127
-0.019874156 0.061824217 0.26755318
-0.01938202 0.061996296 0.26829788
-0.01890178 0.062217534 0.26925531
-0.018417634 0.062438775 0.27021277
-0.01791551 0.06261085 0.27095744
-0.017396715 0.062733762 0.27148935
-0.016875749 0.062856667 0.27202126
-0.016339848 0.06293042 0.27234042
-0.015796479 0.062979586 0.27255321
-0.015240342 0.062979586 0.27255321
-0.014678475 0.062955 0.27244681
-0.014106013 0.062881254 0.27212766
-0.013540151 0.062832095 0.2719149
-0.012980237 0.062807508 0.27180851
-0.012420758 0.062782928 0.27170214
-0.011861712 0.062758341 0.27159575
-0.011298672 0.062709183 0.27138299
-0.010744925 0.062709183 0.27138299
-0.010195171 0.062733762 0.27148935
-0.0096487626 0.062782928 0.27170214
-0.0090943631 0.062782928 0.27170214
-0.0085332757 0.062733762 0.27148935
-0.0079668043 0.062635437 0.27106383
-0.0074020689 0.062537104 0.27063829
-0.0068417639 0.062463362 0.27031916
-0.0062877107 0.062438775 0.27021277
-0.0057431259 0.062512524 0.27053192
-0.0051972386 0.06258627 0.27085108
-0.0046482245 0.062635437 0.27106383
-0.0040935203 0.06261085 0.27095744
-0.0035406409 0.06261085 0.27095744
0.022970492 0.062537104 0.27063829
0.023467243 0.062389612 0.27000001
0.023980314 0.062291279 0.26957446
0.024530372 0.062291279 0.26957446
0.025090327 0.062315866 0.26968086
0.02568106 0.062414192 0.27010638
0.026273532 0.062512524 0.27053192
0.026899382 0.062684596 0.27127659
0.027549809 0.062905841 0.27223405
0.028226102 0.063176237 0.27340424
0.028951976 0.063544974 0.27500001
0.029684359 0.063913703 0.27659574
0.030399987 0.064233273 0.27797872
0.031026449 0.064356185 0.27851063
0.031558536 0.06428244 0.27819148
0.031978752 0.063987456 0.27691489
0.032343749 0.06359414 0.27521276
0.032727238 0.063249983 0.27372339
0.033195209 0.063077912 0.27297872
0.033739056 0.063053325 0.27287233
-0.14974856 0.065197267 0.27968085
-0.14934811 0.065271668 0.28
-0.14877678 0.065271668 0.28
-0.14803652 0.065197267 0.27968085
-0.14735366 0.065147676 0.27946809
-0.14678341 0.065147676 0.27946809
-0.14638014 0.06522207 0.27978724
-0.14614189 0.065370865 0.28042552
-0.14584582 0.065494865 0.28095746
-0.14549255 0.065594055 0.28138298
-0.04944329 0.064626887 0.27723405
-0.048821334 0.064552486 0.27691489
-0.048145063 0.06440369 0.27627659
-0.047379792 0.064130895 0.27510637
-0.046673611 0.063932501 0.27425531
-0.046042453 0.063833311 0.27382979
-0.045519054 0.06388291 0.27404255
-0.045082055 0.064056508 0.27478725
-0.044693723 0.064304501 0.27585107
-0.044249989 0.064478092 0.27659574
-0.043685608 0.064478092 0.27659574
-0.043088052 0.064428493 0.27638298
-0.042507734 0.06440369 0.27627659
-0.041911699 0.064354092 0.27606383
-0.041252796 0.064205296 0.27542552
-0.040580783 0.064031705 0.27468085
-0.039570812 0.063312523 0.27159575
-0.028385008 0.048110574 0.20638297
-0.027574703 0.047440998 0.20351064
-0.02714525 0.047416199 0.20340426
-0.026744189 0.047440998 0.20351064
-0.026370222 0.047515392 0.20382978
-0.025994953 0.04758979 0.20414893
-0.025645038 0.047713786 0.20468085
-0.025292955 0.047837786 0.20521277
-0.024900014 0.047887381 0.20542553
-0.031478468 0.06375891 0.27351063
-0.030944431 0.063808508 0.27372339
-0.03040953 0.063858114 0.27393618
-0.029873757 0.063907713 0.27414894
-0.029314365 0.063907713 0.27414894
-0.028743813 0.06388291 0.27404255
-0.0281737 0.063858114 0.27393618
-0.027614743 0.063858114 0.27393618
-0.027045276 0.063833311 0.27382979
-0.026476244 0.063808508 0.27372339
-0.025907651 0.063783713 0.27361703
-0.025329629 0.063734107 0.27340424
-0.024723563 0.063610114 0.27287233
-0.024081983 0.063386925 0.2719149
-0.023398284 0.063039735 0.27042553
-0.022720661 0.062692538 0.26893616
-0.022075433 0.062419754 0.26776597
-0.021477744 0.062270958 0.26712766
-0.020916006 0.062221359 0.2669149
-0.020379493 0.062246155 0.26702127
-0.019866256 0.062345356 0.26744682
-0.019374335 0.062518947 0.26819149
-0.018886844 0.062717341 0.26904255
-0.018403132 0.062940538 0.27000001
-0.017901443 0.063114129 0.27074468
-0.017383082 0.063238129 0.27127659
-0.01684935 0.063312523 0.27159575
-0.016307933 0.063362122 0.27180851
-0.015759483 0.063386925 0.2719149
-0.01520465 0.063386925 0.2719149
-0.014644085 0.063362122 0.27180851
-0.01407844 0.063312523 0.27159575
-0.01351896 0.063287728 0.27148935
-0.012964996 0.063287728 0.27148935
-0.01241103 0.063287728 0.27148935
-0.01185242 0.063262932 0.27138299
-0.011298672 0.063262932 0.27138299
-0.010744925 0.063262932 0.27138299
-0.010195171 0.063287728 0.27148935
-0.0096487626 0.063337326 0.27170214
-0.0090943631 0.063337326 0.27170214
-0.0085366201 0.063312523 0.27159575
-0.0079730581 0.063238129 0.27127659
-0.0074049789 0.063114129 0.27074468
-0.0068444558 0.063039735 0.27042553
-0.0062901867 0.063014939 0.27031916
-0.0057408675 0.063039735 0.27042553
-0.0051931557 0.063089333 0.27063829
-0.004644576 0.063138932 0.27085108
-0.0040919133 0.063138932 0.27085108
-0.0035392509 0.063138932 0.27085108
-0.0029865885 0.063138932 0.27085108
-0.0024320136 0.063089333 0.27063829
0.0030781226 0.062841341 0.26957446
0.0036267489 0.062816545 0.2694681
0.02285311 0.062766939 0.26925531
0.023384025 0.062717341 0.26904255
0.023895144 0.062618151 0.26861703
0.024433568 0.062593348 0.26851064
0.024981454 0.062593348 0.26851064
0.025569798 0.062692538 0.26893616
0.026190877 0.062866144 0.26968086
0.02684664 0.063114129 0.27074468
0.027528275 0.06341172 0.27202126
0.028215121 0.063709311 0.27329788
0.028884776 0.063957304 0.2743617
0.029535938 0.064155698 0.27521276
0.030132404 0.064230099 0.27553192
0.030682765 0.064205296 0.27542552
0.031172354 0.064056508 0.27478725
0.031622477 0.063833311 0.27382979
0.032056194 0.063585319 0.27276596
0.032536447 0.063436523 0.27212766
0.033065844 0.063386925 0.2719149
-0.14923593 0.065542802 0.27872342
-0.14906439 0.065717921 0.27946809
-0.14866373 0.06579297 0.27978724
-0.14798021 0.065742932 0.27957445
-0.14735366 0.065717921 0.27946809
-0.14683928 0.065742932 0.27957445
-0.14649145 0.065843001 0.28
-0.14625278 0.0659931 0.28063831
-0.14595626 0.066118181 0.28117022
-0.14560257 0.066218242 0.28159574
-0.045935128 0.064241953 0.27319148
-0.045430701 0.064317003 0.27351063
-0.042475 0.064917393 0.27606383
-0.041879397 0.064867362 0.27585107
-0.041236866 0.064742282 0.27531916
-0.040565066 0.064567164 0.27457446
-0.028180169 0.048181467 0.20489362
-0.02753146 0.047781203 0.20319149
-0.027131051 0.047806218 0.20329787
-0.026744189 0.047856253 0.20351064
-0.026370222 0.047931299 0.20382978
-0.026008498 0.048031364 0.20425531
-0.025671696 0.048181467 0.20489362
-0.025332289 0.048331562 0.20553191
-0.024951594 0.048406612 0.20585106
-0.031429496 0.064216942 0.27308512
-0.030896327 0.064266972 0.27329788
-0.030362289 0.064317003 0.27351063
-0.029827384 0.064367034 0.27372339
-0.029268861 0.064367034 0.27372339
-0.028710337 0.064367034 0.27372339
-0.028151814 0.064367034 0.27372339
-0.02759329 0.064367034 0.27372339
-0.027034767 0.064367034 0.27372339
-0.026476244 0.064367034 0.27372339
-0.025907651 0.064342022 0.27361703
-0.025319776 0.064266972 0.27329788
-0.02469465 0.064091861 0.27255321
-0.024034875 0.063816674 0.27138299
-0.02335226 0.063466445 0.26989362
-0.022684712 0.063141234 0.26851064
-0.022057889 0.062916085 0.26755318
-0.021477744 0.062816024 0.26712766
-0.020916006 0.062765993 0.2669149
-0.020379493 0.062791005 0.26702127
-0.019858353 0.062866054 0.26734042
-0.019366648 0.063041165 0.26808509
-0.018886844 0.063266315 0.26904255
-0.018403132 0.063491464 0.27000001
-0.017894408 0.063641556 0.27063829
-0.017369449 0.063741624 0.27106383
-0.01682955 0.063791655 0.27127659
-0.016276021 0.063791655 0.27127659
-0.015722489 0.063791655 0.27127659
-0.015174908 0.063816674 0.27138299
-0.01462116 0.063816674 0.27138299
-0.014067411 0.063816674 0.27138299
-0.013508365 0.063791655 0.27127659
-0.012954835 0.063791655 0.27127659
-0.012401304 0.063791655 0.27127659
-0.011843127 0.063766636 0.2711702
-0.011289813 0.063766636 0.2711702
-0.010736499 0.063766636 0.2711702
-0.010191176 0.063816674 0.27138299
-0.0096412059 0.063841686 0.27148935
-0.0090908017 0.063866705 0.27159575
-0.0085366201 0.063866705 0.27159575
-0.0079730581 0.063791655 0.27127659
-0.0074078888 0.063691594 0.27085108
-0.0068471488 0.063616544 0.27053192
-0.0062901867 0.063566513 0.27031916
-0.0057386095 0.063566513 0.27031916
-0.0051890728 0.063591525 0.27042553
-0.0046391031 0.063616544 0.27053192
-0.0040886989 0.063641556 0.27063829
-0.0035378607 0.063666575 0.27074468
-0.0029854153 0.063666575 0.27074468
-0.0024310579 0.063616544 0.27053192
-0.0018775688 0.063566513 0.27031916
-0.001324426 0.063491464 0.27000001
-0.00077289046 0.063441426 0.26978722
-0.0002222233 0.063391395 0.26957446
0.00032770503 0.063366383 0.2694681
0.00087719917 0.063341364 0.2693617
0.0014262592 0.063316345 0.26925531
0.0019756656 0.063316345 0.26925531
0.0025260698 0.063341364 0.2693617
0.0030756933 0.063341364 0.2693617
0.0036253168 0.063341364 0.2693617
0.0041749403 0.063341364 0.2693617
0.0047264299 0.063366383 0.2694681
0.0052804365 0.063416414 0.26968086
0.0058376119 0.063491464 0.27000001
0.0063935718 0.063541494 0.27021277
0.006944932 0.063541494 0.27021277
0.0074933404 0.063516475 0.27010638
0.0080413157 0.063491464 0.27000001
0.0086023984 0.063566513 0.27031916
0.0091755893 0.063716605 0.27095744
0.0097437482 0.063816674 0.27138299
0.010293459 0.063791655 0.27127659
0.010817214 0.063616544 0.27053192
0.011324517 0.063366383 0.2694681
0.011836856 0.063166253 0.26861703
0.012365339 0.063066185 0.26819149
0.022816995 0.063216284 0.26882979
0.023337793 0.063141234 0.26851064
0.023838364 0.063016154 0.26797873
0.024356123 0.062941104 0.26765957
0.024892375 0.062916085 0.26755318
0.025478769 0.063016154 0.26797873
0.026108224 0.063216284 0.26882979
0.026804445 0.063566513 0.27031916
0.027517511 0.063941754 0.2719149
0.028204137 0.064241953 0.27319148
0.028851176 0.064442083 0.27404255
0.029433183 0.064492114 0.27425531
0.029957892 0.064417072 0.27393618
0.030469444 0.064317003 0.27351063
0.030955123 0.064166903 0.27287233
0.031438198 0.064016812 0.27223405
0.031931173 0.063891724 0.27170214
0.032460131 0.063841686 0.27148935
-0.14906134 0.065783493 0.27734041
-0.14883719 0.065934896 0.27797872
-0.14878069 0.066161998 0.27893618
-0.14849415 0.066288166 0.27946809
-0.14798021 0.066313393 0.27957445
-0.14740974 0.066313393 0.27957445
-0.14695105 0.066363864 0.27978724
-0.14654712 0.066439569 0.2801064
-0.14630821 0.066590957 0.28074467
-0.14601147 0.066717125 0.28127658
-0.14554757 0.066767596 0.28148937
-0.028033853 0.048347209 0.20382978
-0.02753146 0.048195809 0.20319149
-0.027116854 0.048195809 0.20319149
-0.026744189 0.048271511 0.20351064
-0.026370222 0.048347209 0.20382978
-0.025994953 0.04842291 0.20414893
-0.025658367 0.04857431 0.20478724
-0.025332289 0.048750941 0.20553191
-0.024964487 0.048851877 0.20595744
-0.031380519 0.064673223 0.27265957
-0.030860247 0.064748921 0.27297872
-0.030338671 0.064824626 0.27329788
-0.029792607 0.064849854 0.27340424
-0.029234735 0.064849854 0.27340424
-0.028665707 0.064824626 0.27329788
-0.028108051 0.064824626 0.27329788
-0.027561119 0.064849854 0.27340424
-0.027013754 0.064875089 0.27351063
-0.026455665 0.064875089 0.27351063
-0.025897576 0.064875089 0.27351063
-0.025309918 0.064799391 0.27319148
-0.024675369 0.064597525 0.27234042
-0.024006609 0.064294726 0.27106383
-0.023315443 0.063916221 0.2694681
-0.022657748 0.063613422 0.26819149
-0.022040349 0.063411556 0.26734042
-0.021460637 0.063310623 0.2669149
-0.020899331 0.063260153 0.26670212
-0.020363254 0.063285388 0.26680851
-0.019850451 0.063386321 0.26723406
-0.019366648 0.063588187 0.26808509
-0.018894313 0.063840523 0.26914895
-0.018403132 0.064042389 0.27000001
-0.017894408 0.064193785 0.27063829
-0.01736263 0.064269491 0.27095744
-0.01680975 0.064269491 0.27095744
-0.016250489 0.064244255 0.27085108
-0.015697828 0.064244255 0.27085108
-0.015151112 0.064269491 0.27095744
-0.014609695 0.064319953 0.2711702
-0.014061897 0.064345188 0.27127659
-0.013513664 0.064370424 0.27138299
-0.012954835 0.064345188 0.27127659
-0.012391578 0.064294726 0.27106383
-0.011833834 0.064269491 0.27095744
-0.011280955 0.064269491 0.27095744
-0.010732288 0.064294726 0.27106383
-0.010187181 0.064345188 0.27127659
-0.0096374284 0.064370424 0.27138299
-0.0090872413 0.064395651 0.27148935
-0.0085299332 0.064370424 0.27138299
-0.0079699308 0.064319953 0.2711702
-0.0074078888 0.064244255 0.27085108
-0.0068498407 0.064193785 0.27063829
-0.0062926617 0.064143322 0.27042553
-0.0057363505 0.06409286 0.27021277
-0.0051849904 0.06409286 0.27021277
-0.0046354546 0.064118095 0.27031916
-0.0040870919 0.064168558 0.27053192
-0.0035378607 0.06421902 0.27074468
-0.002984242 0.064193785 0.27063829
-0.0024301019 0.064143322 0.27042553
-0.0018768298 0.06409286 0.27021277
-0.001324426 0.064042389 0.27000001
-0.00077289046 0.063991919 0.26978722
-0.00022231101 0.063966691 0.26968086
0.00032783436 0.063941456 0.26957446
0.00087719917 0.063890986 0.2693617
0.0014262592 0.063865751 0.26925531
0.0019741044 0.063815288 0.26904255
0.0025230767 0.063815288 0.26904255
0.003072049 0.063815288 0.26904255
0.0036210215 0.063815288 0.26904255
0.0041716429 0.063840523 0.26914895
0.0047226977 0.063865751 0.26925531
0.0052741873 0.063890986 0.2693617
0.0058284109 0.063941456 0.26957446
0.0063835029 0.063991919 0.26978722
0.0069367294 0.064017154 0.26989362
0.0074844863 0.063991919 0.26978722
0.0080349781 0.063991919 0.26978722
0.0085956268 0.064067617 0.27010638
0.0091647822 0.064193785 0.27063829
0.0097322892 0.064294726 0.27106383
0.010281349 0.064269491 0.27095744
0.010808707 0.064118095 0.27031916
0.011320046 0.063890986 0.2693617
0.011841542 0.063739583 0.2687234
0.012365339 0.063613422 0.26819149
0.012897208 0.063537717 0.26787233
0.013427775 0.063462019 0.26755318
0.013973709 0.063462019 0.26755318
0.014542736 0.063562952 0.26797873
0.01512548 0.063714355 0.26861703
0.015760485 0.064067617 0.27010638
0.02228608 0.063815288 0.26904255
0.022816995 0.063764825 0.26882979
0.023328546 0.063663885 0.26840425
0.023809973 0.063487254 0.26765957
0.02430772 0.063361086 0.26712766
0.024823094 0.063285388 0.26680851
0.025407966 0.063386321 0.26723406
0.026056565 0.063638657 0.26829788
0.026772799 0.064042389 0.27000001
0.027495978 0.064446129 0.27170214
0.028182171 0.064748921 0.27297872
0.028795175 0.064875089 0.27351063
0.029341847 0.064849854 0.27340424
0.029841548 0.064723685 0.27287233
0.030339079 0.064597525 0.27234042
0.03084651 0.064496592 0.2719149
0.031389058 0.064471357 0.27180851
0.031968676 0.064521819 0.27202126
0.032587327 0.064647995 0.27255321
-0.14871828 0.066196695 0.27670214
-0.14849544 0.066349395 0.27734041
-0.14844023 0.066578455 0.27829787
-0.14826804 0.066756606 0.27904254
-0.14786759 0.066832952 0.2793617
-0.14740974 0.066883855 0.27957445
-0.14695105 0.066934757 0.27978724
-0.14660276 0.067036562 0.28021276
-0.14625278 0.067138366 0.28063831
-0.14590104 0.067240164 0.28106382
-0.028434912 0.048737668 0.2037234
-0.027975328 0.048661318 0.20340426
-0.02753146 0.048610415 0.20319149
-0.027116854 0.048610415 0.20319149
-0.02673021 0.048661318 0.20340426
-0.026342696 0.048712216 0.20361702
-0.025967861 0.04878857 0.20393617
-0.02561838 0.048915818 0.20446809
-0.025306066 0.049119424 0.20531915
-0.024938699 0.049221225 0.20574468
-0.030848218 0.065280475 0.27287233
-0.030326862 0.065356828 0.27319148
-0.029792607 0.065407723 0.27340424
-0.029211985 0.065356828 0.27319148
-0.028632231 0.065305926 0.27297872
-0.028075228 0.065305926 0.27297872
-0.027528949 0.065331385 0.27308512
-0.026982233 0.065356828 0.27319148
-0.026445374 0.065407723 0.27340424
-0.025887502 0.065407723 0.27340424
-0.025300065 0.065331385 0.27308512
-0.024665732 0.065127775 0.27223405
-0.023987766 0.064796925 0.27085108
-0.023287827 0.064389713 0.26914895
-0.022621799 0.064058855 0.26776597
-0.022005267 0.063855253 0.2669149
-0.021434976 0.0637789 0.26659575
-0.020882659 0.063753448 0.26648936
-0.020347018 0.0637789 0.26659575
-0.019850451 0.063931607 0.26723406
-0.019374335 0.064160652 0.26819149
-0.018909248 0.064440615 0.2693617
-0.018417634 0.064644217 0.27021277
-0.017901443 0.064771466 0.27074468
-0.017355815 0.064796925 0.27085108
-0.016796552 0.064771466 0.27074468
-0.016237723 0.064746015 0.27063829
-0.01569166 0.064771466 0.27074468
-0.015145165 0.064796925 0.27085108
-0.014609695 0.064873263 0.2711702
-0.014067411 0.064924173 0.27138299
-0.013513664 0.064924173 0.27138299
-0.012954835 0.064898722 0.27127659
-0.012391578 0.06484782 0.27106383
-0.011829189 0.064796925 0.27085108
-0.011280955 0.064822368 0.27095744
-0.010736499 0.064873263 0.2711702
-0.010187181 0.064898722 0.27127659
-0.0096336501 0.064898722 0.27127659
-0.0090801194 0.064898722 0.27127659
-0.008519901 0.06484782 0.27106383
-0.0079636779 0.064822368 0.27095744
-0.0074078888 0.064796925 0.27085108
-0.0068525337 0.064771466 0.27074468
-0.0062976121 0.064746015 0.27063829
-0.0057408675 0.064695112 0.27042553
-0.0051849904 0.064644217 0.27021277
-0.0046336302 0.064644217 0.27021277
-0.0040854844 0.064695112 0.27042553
-0.0035364705 0.064746015 0.27063829
-0.002984242 0.064746015 0.27063829
-0.0024310579 0.064720571 0.27053192
-0.0018775688 0.064669669 0.27031916
-0.0013249478 0.064618766 0.27010638
-0.00077319529 0.064567864 0.26989362
-0.00022239868 0.064542413 0.26978722
0.00032783436 0.06449151 0.26957446
0.00087719917 0.064440615 0.2693617
0.0014256957 0.064389713 0.26914895
0.0019725433 0.06431336 0.26882979
0.0025190862 0.064262465 0.26861703
0.0030671903 0.064262465 0.26861703
0.0036152944 0.064262465 0.26861703
0.0041650473 0.064287908 0.2687234
0.0047133681 0.064287908 0.2687234
0.0052637723 0.06431336 0.26882979
0.0058146105 0.064338803 0.26893616
0.0063658832 0.064364262 0.26904255
0.0069175898 0.064389713 0.26914895
0.00746973 0.064415157 0.26925531
0.0080223056 0.064440615 0.2693617
0.0085820854 0.064516962 0.26968086
0.0091467695 0.064618766 0.27010638
0.0097093713 0.064695112 0.27042553
0.01025713 0.064669669 0.27031916
0.010791691 0.064567864 0.26989362
0.011315575 0.064415157 0.26925531
0.011836856 0.064262465 0.26861703
0.012365339 0.064160652 0.26819149
0.012892088 0.064058855 0.26776597
0.013422438 0.063982502 0.26744682
0.013968154 0.063982502 0.26744682
0.014536962 0.064084306 0.26787233
0.015113498 0.064211555 0.26840425
0.015735658 0.064516962 0.26968086
0.016330902 0.064695112 0.27042553
0.016942471 0.064924173 0.27138299
0.021737108 0.064364262 0.26904255
0.022277268 0.064338803 0.26893616
0.022816995 0.06431336 0.26882979
0.023319302 0.064186111 0.26829788
0.023800509 0.064007953 0.26755318
0.02428836 0.063855253 0.2669149
0.024793399 0.063753448 0.26648936
0.025367508 0.063829802 0.26680851
0.026015237 0.064084306 0.26787233
0.026720056 0.064466067 0.2694681
0.027431384 0.06484782 0.27106383
0.028094308 0.065102324 0.27212766
0.028694376 0.065204129 0.27255321
0.029227676 0.065153226 0.27234042
0.029736843 0.065051422 0.2719149
0.03024427 0.064949617 0.27148935
0.030786168 0.064924173 0.27138299
0.031376772 0.065000527 0.27170214
0.032018688 0.065178677 0.27244681
0.03268908 0.065407723 0.27340424
0.033298701 0.065509535 0.27382979
-0.14854674 0.066684298 0.27638298
-0.14821063 0.06678696 0.2768085
-0.14815651 0.067017972 0.27776596
-0.14798541 0.067197643 0.27851063
-0.14769866 0.067325979 0.27904254
-0.14729756 0.067402981 0.2793617
-0.14689517 0.06747999 0.27968085
-0.14649145 0.067556992 0.28
-0.14603101 0.067608327 0.28021276
-0.14562492 0.067685328 0.28053191
-0.028910866 0.049256027 0.20414893
-0.02846461 0.049204692 0.20393617
-0.027989959 0.049102023 0.20351064
-0.02753146 0.049025018 0.20319149
-0.027116854 0.049025018 0.20319149
-0.026716229 0.049050685 0.20329787
-0.026301406 0.049050685 0.20329787
-0.025913676 0.049102023 0.20351064
-0.025551736 0.049204692 0.20393617
-0.025227394 0.049384363 0.20468085
-0.030872274 0.065888599 0.27308512
-0.03035048 0.0659656 0.27340424
-0.029815795 0.066016942 0.27361703
-0.029223362 0.065939933 0.27329788
-0.02864339 0.065888599 0.27308512
-0.028053345 0.065811597 0.27276596
-0.027518224 0.065862931 0.27297872
-0.026971728 0.065888599 0.27308512
-0.026435087 0.065939933 0.27329788
-0.025887502 0.0659656 0.27340424
-0.025280351 0.065837264 0.27287233
-0.024627175 0.065580584 0.27180851
-0.023959501 0.065272577 0.27053192
-0.023269417 0.064887561 0.26893616
-0.022603823 0.064553887 0.26755318
-0.021987725 0.064348541 0.26670212
-0.021417869 0.064271547 0.26638299
-0.020874325 0.064271547 0.26638299
-0.020355135 0.064348541 0.26670212
-0.019874156 0.064553887 0.26755318
-0.019405076 0.064810567 0.26861703
-0.018939121 0.065092899 0.26978722
-0.018439386 0.065272577 0.27053192
-0.01791551 0.065375246 0.27095744
-0.01736263 0.065375246 0.27095744
-0.016803153 0.065349586 0.27085108
-0.016250489 0.065349586 0.27085108
-0.015703991 0.065375246 0.27095744
-0.015163009 0.065426581 0.2711702
-0.01462116 0.065477923 0.27138299
-0.014072925 0.065503582 0.27148935
-0.01351896 0.065503582 0.27148935
-0.012954835 0.065452248 0.27127659
-0.012391578 0.065400921 0.27106383
-0.011833834 0.065375246 0.27095744
-0.011285385 0.065400921 0.27106383
-0.010744925 0.065477923 0.27138299
-0.010195171 0.065503582 0.27148935
-0.0096336501 0.065452248 0.27127659
-0.0090765581 0.065426581 0.2711702
-0.0085165575 0.065375246 0.27095744
-0.0079636779 0.065375246 0.27095744
-0.0074107982 0.065375246 0.27095744
-0.0068579186 0.065375246 0.27095744
-0.0063025639 0.065349586 0.27085108
-0.0057431259 0.065272577 0.27053192
-0.0051849904 0.065195575 0.27021277
-0.0046318057 0.065169908 0.27010638
-0.0040822704 0.065195575 0.27021277
-0.0035336902 0.06524691 0.27042553
-0.0029830693 0.065272577 0.27053192
-0.0024310579 0.065272577 0.27053192
-0.0018783076 0.06524691 0.27042553
-0.0013254697 0.065195575 0.27021277
-0.00077350007 0.065144241 0.27000001
-0.00022239868 0.065092899 0.26978722
0.00032783436 0.065041572 0.26957446
0.00087685272 0.064964563 0.26925531
0.0014245686 0.064887561 0.26893616
0.0019702015 0.064784892 0.26851064
0.0025160932 0.064733565 0.26829788
0.0030623314 0.06470789 0.26819149
0.0036095669 0.06470789 0.26819149
0.0041584517 0.064733565 0.26829788
0.0047077704 0.064759225 0.26840425
0.0052554403 0.064759225 0.26840425
0.0058031101 0.064759225 0.26840425
0.0063532973 0.064784892 0.26851064
0.0069066524 0.064836226 0.2687234
0.0074579255 0.064861901 0.26882979
0.0080128005 0.064913236 0.26904255
0.008568543 0.064964563 0.26925531
0.0091251554 0.065015905 0.2694681
0.0096826348 0.065067239 0.26968086
0.010228872 0.065041572 0.26957446
0.010770423 0.064990237 0.2693617
0.011302163 0.064887561 0.26893616
0.011836856 0.064810567 0.26861703
0.012360434 0.064682223 0.26808509
0.012892088 0.064605221 0.26776597
0.013422438 0.064528219 0.26744682
0.013962597 0.064502552 0.26734042
0.014519642 0.064553887 0.26755318
0.015095527 0.064682223 0.26808509
0.015685998 0.064861901 0.26882979
0.016279507 0.065041572 0.26957446
0.016876057 0.06522125 0.27031916
0.017427633 0.06522125 0.27031916
0.017965058 0.065169908 0.27010638
0.018465152 0.064990237 0.2693617
0.018999757 0.064938903 0.26914895
0.019533491 0.064887561 0.26893616
0.020066358 0.064836226 0.2687234
0.02061468 0.064836226 0.2687234
0.021154625 0.064810567 0.26861703
0.021711322 0.064836226 0.2687234
0.022250833 0.064810567 0.26861703
0.022780877 0.064759225 0.26840425
0.023300806 0.064682223 0.26808509
0.023781583 0.064502552 0.26734042
0.024268998 0.064348541 0.26670212
0.024773605 0.06424588 0.2662766
0.025337163 0.064297207 0.26648936
0.025963578 0.064502552 0.26734042
0.026635665 0.064810567 0.26861703
0.027302191 0.065092899 0.26978722
0.027929565 0.065272577 0.27053192
0.028515177 0.065349586 0.27085108
0.02906784 0.065349586 0.27085108
0.029597232 0.065298244 0.27063829
0.030125758 0.06524691 0.27042553
0.030689621 0.065272577 0.27053192
0.031303059 0.065400921 0.27106383
0.031968676 0.065631919 0.27202126
0.032638203 0.065862931 0.27297872
0.033195209 0.065862931 0.27297872
0.033620674 0.065606259 0.2719149
-0.14848956 0.067222357 0.27627659
-0.14815368 0.067325898 0.27670214
-0.14798628 0.067507088 0.27744681
-0.14775932 0.067662396 0.27808511
-0.14747344 0.06779182 0.27861702
-0.14707321 0.067869477 0.27893618
-0.14672753 0.06797301 0.2793617
-0.14626881 0.068024777 0.27957445
-0.14580925 0.068076551 0.27978724
-0.14523835 0.068076551 0.27978724
-0.028895801 0.049646702 0.20404255
-0.02846461 0.049620818 0.20393617
-0.027989959 0.049517281 0.20351064
-0.02753146 0.049439624 0.20319149
-0.027102657 0.049413741 0.20308511
-0.026688268 0.049413741 0.20308511
-0.02627388 0.049413741 0.20308511
