# .PCD v0.7 - Point Cloud Data file format
VERSION 0.7
FIELDS x y z
SIZE 4 4 4
TYPE F F F
COUNT 1 1 1
WIDTH 1376
HEIGHT 1
VIEWPOINT 0 0 0 1 0 0 0
POINTS 1376
DATA ascii
0.12559389 0.01932192 0.19627659
-0.19831701 0.031769659 0.31617022
-0.19793791 0.031812418 0.31659573
-0.19768967 0.031876557 0.31723404
-0.19743884 0.031940695 0.31787235
-0.19711952 0.031994142 0.31840426
-0.19666676 0.032026213 0.31872341
-0.071806945 0.03118173 0.31031916
-0.071246944 0.031213799 0.31063831
-0.070637278 0.031224487 0.31074467
-0.069835454 0.031149661 0.31
-0.068870433 0.031000005 0.30851063
-0.067887962 0.030839661 0.3069149
-0.067168452 0.0307969 0.30648935
-0.066774048 0.030903799 0.3075532
-0.066535451 0.031085521 0.3093617
-0.066198826 0.031224487 0.31074467
-0.065654553 0.031267248 0.31117022
-0.065019622 0.031267248 0.31117022
-0.064318649 0.031235177 0.31085107
-0.063640781 0.031213799 0.31063831
-0.062963776 0.031192418 0.31042552
-0.062244922 0.031149661 0.31
-0.0615278 0.0311069 0.30957446
-0.060812421 0.031064143 0.30914894
-0.060078066 0.031010695 0.30861703
-0.059325386 0.030946556 0.30797872
-0.058575314 0.030882418 0.30734041
-0.057908081 0.030861039 0.30712765
-0.057321079 0.030882418 0.30734041
-0.056811705 0.030946556 0.30797872
-0.056280319 0.031000005 0.30851063
-0.055689193 0.031021383 0.30872339
-0.055078227 0.031032074 0.30882978
-0.054391805 0.031000005 0.30851063
-0.053632528 0.030925177 0.30776596
-0.052803002 0.03080759 0.30659574
-0.051978253 0.030690003 0.30542552
-0.051229831 0.030615177 0.30468085
-0.050572801 0.030593799 0.3044681
-0.049934089 0.030583108 0.3043617
-0.049295813 0.030572418 0.30425531
-0.04869201 0.030583108 0.3043617
-0.048087772 0.030593799 0.3044681
-0.047433343 0.030572418 0.30425531
-0.046681575 0.0304869 0.30340424
-0.045900982 0.030380003 0.30234042
-0.045140665 0.030283799 0.30138299
-0.044478551 0.03025173 0.30106384
-0.043848738 0.030241039 0.30095744
-0.043234646 0.030241039 0.30095744
-0.042590421 0.030219659 0.30074468
-0.04190252 0.030166212 0.30021277
-0.041216787 0.030112764 0.29968086
-0.040518813 0.030048626 0.29904255
-0.039809246 0.029973799 0.29829788
-0.039088737 0.029888282 0.29744682
-0.038399227 0.029824143 0.29680851
-0.03772587 0.029770695 0.2962766
-0.037041351 0.029706556 0.29563829
-0.036372554 0.029653108 0.29510638
-0.035693027 0.029588969 0.29446808
-0.03505414 0.0295569 0.29414892
-0.034478866 0.029578282 0.29436171
-0.033927202 0.029621039 0.29478723
-0.033373807 0.029663799 0.29521278
-0.032783244 0.029674487 0.29531914
-0.03215747 0.029653108 0.29510638
-0.031509813 0.029610351 0.29468086
-0.030863894 0.02956759 0.29425532
-0.030230651 0.029535521 0.29393616
-0.029598711 0.029503452 0.29361701
-0.028926047 0.029428625 0.29287234
-0.02823584 0.029332416 0.29191488
-0.027519323 0.029204143 0.2906383
-0.02683758 0.029107934 0.28968084
-0.026207943 0.029065177 0.28925532
-0.025645992 0.029097246 0.28957447
-0.025101148 0.029150695 0.29010639
-0.024545144 0.029193452 0.2905319
-0.023961095 0.029204143 0.2906383
-0.023368059 0.029204143 0.2906383
-0.022750011 0.029172072 0.29031914
-0.022117028 0.029118625 0.28978723
-0.021478312 0.029054487 0.28914893
-0.020849889 0.029001039 0.28861701
-0.020231104 0.028958282 0.2881915
-0.019599551 0.028894143 0.28755319
-0.018970605 0.028830003 0.28691489
-0.018344264 0.028765868 0.28627661
-0.017733727 0.028723108 0.28585106
-0.017137691 0.028701728 0.2856383
-0.016548689 0.028691038 0.28553191
-0.015948227 0.028658969 0.28521276
-0.015337601 0.028605521 0.28468084
-0.014718119 0.028530695 0.28393617
-0.014096377 0.028445177 0.28308511
-0.013488269 0.028381038 0.2824468
-0.01290222 0.028359659 0.28223404
-0.012330977 0.028370351 0.28234044
-0.011754871 0.028370351 0.28234044
-0.01117034 0.028348969 0.28212765
-0.010582684 0.028316902 0.28180853
-0.0099925511 0.028274143 0.28138298
-0.0094112772 0.028252764 0.28117022
-0.0088342149 0.028242072 0.28106382
-0.0082513327 0.028210003 0.28074467
-0.007663935 0.028156556 0.28021276
-0.0070733223 0.028081728 0.27946809
-0.006488224 0.02801759 0.27882978
-0.005912506 0.027985521 0.27851063
-0.0053503383 0.02801759 0.27882978
-0.004788693 0.028060351 0.27925533
-0.0042237029 0.028092416 0.27957445
-0.0036546309 0.028103108 0.27968085
-0.0030816055 0.028081728 0.27946809
-0.0025094484 0.028060351 0.27925533
-0.0019366815 0.02801759 0.27882978
-0.0013640858 0.027942764 0.27808511
-0.00079544331 0.027900003 0.27765957
-0.00022888824 0.027900003 0.27765957
0.00033818433 0.027942764 0.27808511
0.0009069934 0.027985521 0.27851063
0.0014769756 0.02801759 0.27882978
0.0020435767 0.027985521 0.27851063
0.0026038871 0.027900003 0.27765957
0.0031546506 0.027761038 0.27627659
0.0036969068 0.027600694 0.27468085
0.0042342995 0.027451038 0.27319148
0.0047712121 0.027333451 0.27202126
0.0053137648 0.027269315 0.27138299
0.0058606123 0.027237246 0.27106383
0.0064061577 0.027205177 0.27074468
0.0069504003 0.027173107 0.27042553
0.0074903895 0.02713035 0.27000001
0.0080349781 0.027108969 0.26978722
0.0085719284 0.027066212 0.2693617
0.009099937 0.027002072 0.2687234
0.0096253399 0.026937934 0.26808509
0.01014814 0.026873797 0.26744682
0.010685349 0.02685242 0.26723406
0.011235101 0.026863107 0.26734042
0.0117806 0.026863107 0.26734042
0.012301575 0.026809659 0.26680851
0.012805013 0.026724141 0.26595744
0.013310317 0.026649315 0.26521277
0.013840361 0.026627934 0.26499999
0.014392633 0.026649315 0.26521277
0.014963741 0.026702764 0.26574469
0.015518399 0.026724141 0.26595744
0.016048228 0.026702764 0.26574469
0.016563904 0.026660003 0.26531914
0.017064128 0.026595868 0.26468086
0.017568823 0.02654242 0.26414895
0.018078638 0.026499659 0.2637234
0.018579209 0.026446212 0.26319149
0.019093061 0.026414141 0.26287234
0.019597668 0.026371384 0.26244682
0.020100538 0.026328625 0.26202127
0.020601671 0.026285868 0.26159576
0.021101067 0.026243107 0.26117021
0.021589916 0.026189659 0.2606383
0.022076594 0.026136212 0.26010638
0.022579592 0.026104141 0.25978723
0.023071827 0.026061384 0.25936171
0.023552641 0.026007934 0.25882977
0.024021391 0.025943797 0.2581915
0.024517877 0.025911728 0.25787234
0.025054391 0.02592242 0.25797874
0.025591334 0.025933107 0.2580851
0.026128715 0.025943797 0.2581915
0.026644563 0.025933107 0.2580851
0.027126377 0.02589035 0.25765958
0.027606454 0.02584759 0.25723404
0.028084796 0.025804833 0.25680852
0.028573252 0.025772763 0.25648937
0.029084541 0.025762072 0.25638297
0.029607682 0.025762072 0.25638297
0.030118322 0.025751384 0.25627661
0.030590365 0.025708625 0.25585106
0.031034801 0.025644485 0.25521275
0.031476635 0.02558035 0.25457448
0.031955972 0.025548281 0.25425532
0.032461181 0.02553759 0.25414893
0.032965962 0.025526902 0.25404257
0.033428237 0.025484141 0.25361702
0.0338603 0.025420003 0.25297871
0.034275305 0.025345176 0.25223404
0.034716614 0.025291728 0.25170213
0.035215311 0.025281038 0.25159574
0.03571358 0.02527035 0.25148937
0.036165435 0.02522759 0.25106382
0.036553394 0.025142072 0.25021276
0.036937878 0.025056556 0.24936171
0.037366811 0.025003107 0.24882978
0.037874542 0.025003107 0.24882978
0.038431499 0.025035176 0.24914894
0.039039642 0.025099315 0.24978724
0.039650384 0.025163451 0.25042552
0.040229615 0.02520621 0.25085106
0.040689632 0.025174141 0.25053191
0.04100839 0.025056556 0.24936171
0.041269235 0.0249069 0.24787234
0.04157779 0.024789315 0.24670213
0.042008594 0.024746556 0.2462766
0.042492747 0.024735866 0.24617021
0.043013629 0.024746556 0.2462766
0.043478552 0.024725176 0.24606383
0.043961626 0.024714487 0.24595745
0.044425029 0.024693107 0.24574468
0.044868119 0.024661038 0.24542554
0.045290235 0.024618281 0.245
0.045690734 0.024564831 0.24446808
0.046109166 0.024522074 0.24404256
0.046607129 0.024522074 0.24404256
0.047166687 0.024554141 0.2443617
0.047748305 0.0245969 0.24478723
0.048289724 0.024618281 0.245
0.04876845 0.024607589 0.24489361
0.049161136 0.024554141 0.2443617
0.049530033 0.024490004 0.24372341
0.049896322 0.024425866 0.2430851
0.050260007 0.024361728 0.24244681
0.050621089 0.024297589 0.2418085
0.050979566 0.024233453 0.24117021
0.051335439 0.024169315 0.24053192
0.051711623 0.024115866 0.23999999
0.052178197 0.024105176 0.23989362
0.052691046 0.024115866 0.23999999
0.053227909 0.024137245 0.24021277
0.053741843 0.024147935 0.24031915
0.054232206 0.024147935 0.24031915
0.054698344 0.024137245 0.24021277
0.055115167 0.024105176 0.23989362
0.055506028 0.024062417 0.23946808
0.05587028 0.024008969 0.23893617
0.056232359 0.023955522 0.23840426
0.056642883 0.023923451 0.23808511
0.057077635 0.023902074 0.23787235
0.057588749 0.023912763 0.23797873
0.058100298 0.023923451 0.23808511
0.058559924 0.023912763 0.23797873
0.058992721 0.023891382 0.23776595
0.059371427 0.023848623 0.23734042
0.059802055 0.023827245 0.23712766
0.060258862 0.023816556 0.23702128
0.060687967 0.023795176 0.23680851
0.061061244 0.023752417 0.23638298
0.061377395 0.023688279 0.23574468
0.061718851 0.023634832 0.23521277
0.062058136 0.023581382 0.23468085
0.062423598 0.023538623 0.23425531
0.062844463 0.023517245 0.23404256
0.063293234 0.023506556 0.23393618
0.063683569 0.023474487 0.23361702
0.064043395 0.023431728 0.23319149
0.064430907 0.023399659 0.23287234
0.06487643 0.023388969 0.23276596
0.065351374 0.023388969 0.23276596
0.065856412 0.023399659 0.23287234
0.06633158 0.023399659 0.23287234
0.066806749 0.023399659 0.23287234
0.067281917 0.023399659 0.23287234
0.067695178 0.023378279 0.23265958
0.068045236 0.023335522 0.23223405
0.068330772 0.023271382 0.23159574
0.068613708 0.023207245 0.23095745
0.068957679 0.023164487 0.23053192
0.069363996 0.023143107 0.23031914
0.069769442 0.023121728 0.23010638
0.070206493 0.023111038 0.23
0.070643112 0.023100348 0.22989361
0.07104639 0.023078969 0.22968085
0.07141567 0.0230469 0.2293617
0.071716972 0.022993451 0.22882979
0.072016098 0.022940004 0.22829787
0.072346829 0.022897245 0.22787234
0.072709821 0.022865176 0.22755319
0.073071502 0.022833107 0.22723404
0.073397458 0.022790348 0.2268085
0.07375633 0.022758279 0.22648937
0.074183613 0.022747591 0.22638299
0.074645542 0.022747591 0.22638299
0.075142764 0.022758279 0.22648937
0.075640418 0.022768969 0.22659574
0.076102778 0.022768969 0.22659574
0.076565139 0.022768969 0.22659574
0.0770275 0.022768969 0.22659574
0.07748986 0.022768969 0.22659574
0.077842429 0.0227369 0.22627659
0.078083254 0.022672763 0.2256383
0.078358501 0.022619314 0.22510639
0.07863158 0.022565864 0.22457446
0.07901489 0.022544486 0.2243617
0.079435006 0.022533797 0.22425532
0.079816796 0.022512417 0.22404255
0.080235831 0.022501728 0.22393617
0.080692761 0.022501728 0.22393617
0.081149697 0.022501728 0.22393617
0.081529096 0.02248035 0.22372341
0.08182966 0.022437591 0.22329788
0.08212848 0.022394832 0.22287235
0.082425565 0.022352073 0.22244681
0.08272092 0.022309314 0.22202128
0.083014533 0.022266556 0.22159575
0.083346479 0.022234486 0.2212766
0.083757699 0.022223797 0.22117022
0.084168479 0.022213107 0.22106382
0.084619552 0.022213107 0.22106382
0.084988751 0.022191728 0.22085106
0.085357085 0.022170348 0.2206383
0.085683167 0.022138279 0.22031915
0.085966364 0.02209552 0.21989362
0.086164199 0.022031382 0.21925531
0.086401463 0.021977935 0.2187234
0.086678796 0.021935176 0.21829787
0.087081768 0.021924486 0.21819149
0.087612331 0.021945864 0.21840425
0.088100873 0.021956556 0.21851064
0.088546738 0.021956556 0.21851064
0.088949271 0.021945864 0.21840425
0.08930783 0.021924486 0.21819149
0.08962176 0.021892417 0.21787234
0.089934394 0.021860348 0.2175532
0.090289913 0.021838969 0.21734042
0.090688974 0.021828279 0.21723405
0.09108761 0.021817591 0.21712767
0.091485798 0.021806899 0.21702127
0.091838501 0.02178552 0.21680851
0.092190325 0.021764141 0.21659574
0.092586786 0.021753451 0.21648936
0.092937104 0.021732073 0.2162766
0.093286544 0.021710692 0.21606383
0.093588963 0.021678623 0.21574467
0.093936458 0.021657245 0.21553192
0.094283074 0.021635864 0.21531914
0.094722427 0.021635864 0.21531914
0.09511476 0.021625176 0.21521276
0.095459431 0.021603797 0.215
0.095708333 0.021561038 0.21457447
0.095955491 0.021518279 0.21414894
0.096248798 0.02148621 0.21382979
0.096637011 0.02147552 0.21372341
0.097024783 0.021464832 0.21361703
0.097363591 0.021443451 0.21340425
0.097652771 0.021411382 0.2130851
0.097940661 0.021379314 0.21276596
0.09832561 0.021368623 0.21265957
0.09866073 0.021347245 0.21244681
0.09899497 0.021325864 0.21223404
0.09922868 0.021283107 0.21180852
0.0995107 0.021251038 0.21148936
0.099841684 0.021229658 0.21127659
0.10027279 0.021229658 0.21127659
0.10065319 0.021218969 0.21117021
0.10103315 0.021208279 0.21106383
0.10136154 0.021186899 0.21085106
0.10168906 0.02116552 0.2106383
0.10206728 0.021154832 0.21053192
0.10244507 0.021144141 0.21042553
0.10282243 0.021133451 0.21031915
0.10325158 0.021133451 0.21031915
0.10362829 0.021122763 0.21021277
0.10384657 0.021080004 0.20978723
0.10406312 0.021037245 0.2093617
0.10427795 0.020994486 0.20893617
0.10465096 0.020983797 0.20882979
0.10507707 0.020983797 0.20882979
0.10550318 0.020983797 0.20882979
0.10582136 0.020962417 0.20861702
0.1060845 0.020930348 0.20829788
0.10640073 0.020908969 0.2080851
0.10677071 0.020898279 0.20797873
0.10708541 0.020876899 0.20776595
0.10745431 0.02086621 0.20765957
0.10771223 0.02083414 0.20734042
0.10791337 0.020791382 0.20691489
0.10816848 0.020759314 0.20659575
0.10842228 0.020727245 0.2062766
0.10873092 0.020705866 0.20606384
0.10915139 0.020705866 0.20606384
0.10957185 0.020705866 0.20606384
0.10999232 0.020705866 0.20606384
0.11035578 0.020695176 0.20595744
0.11060438 0.020663107 0.2056383
0.11085166 0.020631038 0.20531915
0.11121296 0.020620348 0.20521277
0.11163169 0.020620348 0.20521277
0.11210851 0.020631038 0.20531915
0.11252745 0.020631038 0.20531915
0.11288787 0.020620348 0.20521277
0.11313039 0.020588279 0.20489362
0.11331265 0.02054552 0.20446809
0.11349317 0.020502761 0.20404255
0.11361256 0.020449314 0.20351064
0.11372978 0.020395866 0.20297873
0.11384483 0.020342417 0.2024468
0.1140778 0.020310348 0.20212767
0.11436971 0.020288968 0.20191489
0.11478171 0.020288968 0.20191489
0.1152544 0.020299658 0.20202127
0.11566662 0.020299658 0.20202127
0.11601771 0.020288968 0.20191489
0.11624568 0.020256899 0.20159574
0.11641079 0.02021414 0.20117021
0.11663595 0.020182073 0.20085107
0.11698377 0.020171382 0.20074467
0.11733118 0.020160692 0.20063829
0.11767814 0.020150004 0.20053191
0.11802468 0.020139314 0.20042554
0.11837078 0.020128625 0.20031916
0.11877953 0.020128625 0.20031916
0.11906167 0.020107245 0.20010638
0.11927944 0.020075176 0.19978723
0.11949591 0.020043107 0.19946809
0.11964712 0.020000348 0.19904256
0.11992493 0.019978968 0.19882978
0.12013748 0.019946899 0.19851063
0.12047794 0.01993621 0.19840425
0.12081797 0.01992552 0.19829787
0.12128761 0.01993621 0.19840425
0.12169246 0.01993621 0.19840425
0.12209729 0.01993621 0.19840425
0.12243645 0.01992552 0.19829787
0.12270926 0.01990414 0.1980851
0.1229151 0.019872073 0.19776596
0.12311962 0.019840004 0.19744681
0.12325629 0.019797245 0.19702128
0.12339123 0.019754486 0.19659574
0.12359141 0.019722417 0.19627659
0.1238575 0.019701038 0.19606383
0.12412271 0.019679658 0.19585106
0.12452234 0.019679658 0.19585106
0.12498983 0.019690348 0.19595745
0.12545775 0.019701038 0.19606383
-0.19825026 0.032403886 0.31606382
-0.1978714 0.032447517 0.31648937
-0.19775598 0.032534771 0.31734043
-0.19750489 0.032600209 0.31797871
-0.1971854 0.032654744 0.31851065
-0.1967324 0.032687463 0.31882977
-0.071659237 0.031749483 0.30968085
-0.071051747 0.031760391 0.30978724
-0.070419639 0.031760391 0.30978724
-0.069595806 0.031673137 0.30893618
-0.0686092 0.031509534 0.30734041
-0.06765265 0.031356841 0.30585107
-0.066981934 0.031335026 0.30563828
-0.066658556 0.031476818 0.30702129
-0.066443935 0.031673137 0.30893618
-0.066108182 0.031814925 0.31031916
-0.065564767 0.031858552 0.31074467
-0.064908475 0.031847645 0.31063831
-0.064252615 0.031836737 0.31053191
-0.063618988 0.031836737 0.31053191
-0.062942199 0.031814925 0.31031916
-0.0622022 0.031760391 0.30978724
-0.061422084 0.031684045 0.30904254
-0.060624078 0.031596791 0.30819148
-0.059829548 0.031509534 0.30734041
-0.059099969 0.031455003 0.3068085
-0.058392838 0.031411376 0.30638298
-0.057747614 0.031400468 0.30627659
-0.057202034 0.031444099 0.30670214
-0.05669396 0.031509534 0.30734041
-0.056202695 0.031585883 0.30808511
-0.055670008 0.031640418 0.30861703
-0.055097204 0.031673137 0.30893618
-0.054448072 0.031662229 0.30882978
-0.053706679 0.031596791 0.30819148
-0.052876294 0.031476818 0.30702129
-0.052050676 0.031356841 0.30585107
-0.051301379 0.031280495 0.30510637
-0.050625812 0.031247776 0.30478725
-0.049968995 0.031225961 0.30457446
-0.049330287 0.031215057 0.3044681
-0.04869201 0.031204147 0.3043617
-0.048070971 0.031204147 0.3043617
-0.047400173 0.031171428 0.30404255
-0.04666521 0.031095082 0.30329788
-0.045884833 0.030986015 0.30223405
-0.045124728 0.030887853 0.30127659
-0.044447117 0.030844228 0.30085108
-0.04381774 0.030833319 0.30074468
-0.04320408 0.030833319 0.30074468
-0.042575356 0.030822411 0.30063829
-0.041932214 0.0308006 0.30042553
-0.041260682 0.030756973 0.30000001
-0.040576469 0.030702436 0.29946807
-0.039894428 0.030647904 0.29893616
-0.039214559 0.030593371 0.29840425
-0.038523097 0.030527933 0.29776597
-0.037820689 0.030451583 0.29702127
-0.037121326 0.030375237 0.2962766
-0.036411889 0.030287983 0.29542553
-0.035718821 0.030211637 0.29468086
-0.03505414 0.0301571 0.29414892
-0.034466401 0.030168008 0.29425532
-0.033914961 0.030211637 0.29468086
-0.033361778 0.030255262 0.29510638
-0.032747813 0.030244354 0.29499999
-0.032099508 0.030200729 0.29457447
-0.031452935 0.0301571 0.29414892
-0.030819261 0.030124383 0.2938298
-0.03020877 0.030113475 0.2937234
-0.02958799 0.030091662 0.29351065
-0.028926047 0.030026222 0.29287234
-0.02822555 0.029917154 0.29180852
-0.027509248 0.029786272 0.2905319
-0.026817869 0.029677205 0.28946808
-0.026198303 0.029644486 0.28914893
-0.025636569 0.029677205 0.28946808
-0.025091942 0.029731739 0.28999999
-0.02452717 0.02976446 0.29031914
-0.023952324 0.029786272 0.2905319
-0.023359504 0.029786272 0.2905319
-0.022750011 0.02976446 0.29031914
-0.022117028 0.029709926 0.28978723
-0.021486215 0.029655393 0.28925532
-0.020857574 0.029600861 0.28872341
-0.020260975 0.029589951 0.28861701
-0.019650308 0.029557232 0.28829786
-0.019019844 0.029491793 0.28765959
-0.018378349 0.02940454 0.28680852
-0.017746925 0.02932819 0.28606382
-0.017124927 0.029262751 0.28542554
-0.016530193 0.029240936 0.28521276
-0.01593633 0.029219123 0.285
-0.015331871 0.029175498 0.28457448
-0.01470709 0.029088244 0.28372341
-0.014085783 0.02900099 0.28287235
-0.013467949 0.028913736 0.28202128
-0.012882767 0.028891923 0.28180853
-0.012317039 0.028913736 0.28202128
-0.011754871 0.028946457 0.28234044
-0.011178765 0.028946457 0.28234044
-0.010590673 0.028913736 0.28202128
-0.010003885 0.028881015 0.28170213
-0.0094219595 0.028859202 0.28148937
-0.0088409018 0.028837387 0.28127658
-0.0082575874 0.028804669 0.28095746
-0.0076697539 0.028750133 0.28042552
-0.0070760148 0.028662879 0.27957445
-0.006488224 0.028586533 0.27882978
-0.005912506 0.028553812 0.27851063
-0.0053503383 0.028586533 0.27882978
-0.004788693 0.028630162 0.27925533
-0.0042220959 0.028651975 0.27946809
-0.0036518509 0.028651975 0.27946809
-0.0030792595 0.028630162 0.27925533
-0.0025075362 0.028608346 0.27904254
-0.00079574808 0.028477466 0.27776596
-0.00022915134 0.028499279 0.27797872
0.00033857246 0.028542908 0.27840427
0.00090768636 0.028575629 0.27872342
0.0014775392 0.028597441 0.27893618
0.0020459185 0.028586533 0.27882978
0.0026088753 0.028521093 0.27819148
0.0031619391 0.028390212 0.27691489
0.0037054978 0.028226612 0.27531916
0.004244193 0.028073918 0.27382979
0.0047805426 0.027943037 0.27255321
0.0053241798 0.027877597 0.2719149
0.0058698123 0.027833968 0.27148935
0.0064162258 0.027801247 0.2711702
0.0069586029 0.027757622 0.27074468
0.0074962922 0.02770309 0.27021277
0.0080381474 0.027670369 0.26989362
0.0085786991 0.027637647 0.26957446
0.0091179498 0.027604926 0.26925531
0.0096482579 0.027550394 0.2687234
0.010172359 0.027484953 0.26808509
0.010702363 0.027441327 0.26765957
0.011244043 0.027430419 0.26755318
0.011775914 0.027397702 0.26723406
0.012296669 0.027343165 0.26670212
0.01279989 0.027255911 0.26585105
0.013310317 0.027190473 0.26521277
0.013845918 0.027179565 0.26510638
0.014415725 0.027234098 0.26563829
0.014987702 0.027288632 0.2661702
0.01554323 0.027310448 0.26638299
0.016067501 0.027277727 0.26606384
0.016570546 0.027212286 0.26542553
0.017064128 0.02713594 0.26468086
0.017568823 0.027081406 0.26414895
0.018085932 0.027048687 0.2638298
0.018594228 0.027005058 0.26340425
0.019100789 0.026961433 0.26297873
0.019597668 0.026906898 0.26244682
0.020092376 0.026852362 0.26191488
0.020584915 0.026797829 0.26138297
0.021075282 0.026743295 0.26085106
0.021554668 0.026677858 0.26021278
0.022040475 0.026623322 0.25968084
0.022533361 0.026579695 0.25925532
0.023024507 0.026536068 0.25882977
0.023513921 0.026492441 0.25840425
0.023991698 0.026437908 0.25787234
0.024487535 0.026405187 0.25755319
0.025023395 0.026416095 0.25765958
0.025580788 0.026448816 0.25797874
0.026128715 0.026470629 0.2581915
0.026633581 0.026448816 0.25797874
0.027115177 0.026405187 0.25755319
0.027595039 0.026361562 0.25712767
0.028084796 0.026328841 0.25680852
0.028573252 0.026296122 0.25648937
0.029072475 0.026274309 0.25627661
0.029570824 0.026252493 0.25606382
0.03006831 0.02623068 0.25585106
0.030539488 0.026187055 0.25542554
0.030995995 0.02613252 0.25489363
0.031463481 0.026088893 0.25446808
0.031955972 0.02606708 0.25425532
0.032474771 0.02606708 0.25425532
0.032965962 0.026045267 0.25404257
0.033414215 0.02599073 0.25351062
0.033846065 0.025925294 0.25287235
0.034260847 0.025848944 0.25212765
0.034716614 0.025805319 0.25170213
0.035215311 0.025794411 0.25159574
0.03571358 0.025783505 0.25148937
0.036150116 0.025728973 0.25095746
0.03652231 0.025630809 0.25
0.0368906 0.02553265 0.24904256
0.037318885 0.025478117 0.24851064
0.037809771 0.02546721 0.24840425
0.03834945 0.025489023 0.24861702
0.038939878 0.025543556 0.24914894
0.039532479 0.02559809 0.24968085
0.040110189 0.025641719 0.25010639
0.040603243 0.025630809 0.25
0.040955905 0.02553265 0.24904256
0.041233812 0.025390863 0.24765958
0.04155986 0.025281794 0.24659574
0.042008594 0.025249075 0.2462766
0.042529475 0.025259981 0.24638298
0.043050788 0.025270889 0.24648936
0.043516148 0.025249075 0.2462766
0.043961626 0.025216354 0.24595745
0.044405796 0.025183635 0.2456383
0.04480977 0.0251291 0.24510638
0.045211572 0.025074568 0.24457447
0.045611206 0.025020035 0.24404256
0.046048865 0.024987314 0.24372341
0.046546176 0.024987314 0.24372341
0.047064018 0.02499822 0.24382979
0.047644548 0.025041847 0.24425532
0.048184879 0.02506366 0.24446808
0.048683707 0.02506366 0.24446808
0.049118333 0.025030941 0.24414894
0.049486794 0.024965499 0.24351063
0.049874485 0.024910966 0.24297872
0.050237957 0.024845526 0.24234043
0.050598819 0.024780085 0.24170212
0.05095708 0.024714645 0.24106383
0.051290028 0.024638297 0.24031915
0.051642861 0.024572859 0.23968086
0.052085642 0.024551043 0.23946808
0.052597623 0.024561951 0.23957446
0.053157188 0.02459467 0.23989362
0.053670473 0.024605578 0.23999999
0.054184195 0.024616485 0.24010639
0.054649897 0.024605578 0.23999999
0.055090725 0.024583764 0.23978724
0.055481371 0.024540137 0.2393617
0.05587028 0.024496511 0.23893617
0.056257449 0.024452884 0.23851064
0.056693505 0.02443107 0.23829788
0.057205271 0.024441978 0.23840426
0.05774321 0.02446379 0.23861702
0.05825606 0.024474697 0.2387234
0.058664639 0.024441978 0.23840426
0.059019119 0.024387443 0.23787235
0.059371427 0.024332909 0.23734042
0.059775226 0.02430019 0.23702128
0.060231812 0.024289282 0.23691489
0.060660705 0.024267469 0.23670213
0.061033767 0.024223842 0.2362766
0.061377395 0.024169309 0.23574468
0.061690934 0.024103869 0.23510638
0.062001873 0.024038428 0.23446809
0.062366903 0.023994802 0.23404256
0.062815897 0.023983896 0.23393618
0.063264444 0.023972986 0.23382978
0.063683569 0.023951175 0.23361702
0.064072609 0.023918454 0.23329787
0.064430907 0.023874827 0.23287234
0.064846776 0.023853013 0.23265958
0.065291643 0.023842108 0.2325532
0.065796249 0.023853013 0.23265958
0.066301279 0.023863921 0.23276596
0.066806749 0.023874827 0.23287234
0.067281917 0.023874827 0.23287234
0.067695178 0.023853013 0.23265958
0.068045236 0.023809386 0.23223405
0.068330772 0.023743946 0.23159574
0.068645313 0.023689412 0.23106383
0.0689895 0.023645785 0.2306383
0.069428071 0.023634879 0.23053192
0.06986621 0.023623973 0.23042554
0.070303909 0.023613065 0.23031914
0.07077387 0.023613065 0.23031914
0.071210921 0.023602158 0.23021276
0.071581289 0.023569439 0.22989361
0.071883678 0.023514904 0.2293617
0.07221745 0.023471277 0.22893617
0.072549485 0.02342765 0.22851063
0.072913773 0.023394931 0.22819149
0.073242553 0.023351304 0.22776596
0.073535167 0.02329677 0.22723404
0.073860258 0.023253143 0.2268085
0.074218474 0.023220424 0.22648937
0.074680619 0.023220424 0.22648937
0.07521335 0.023242237 0.22670212
0.075746953 0.02326405 0.2269149
0.076209962 0.02326405 0.2269149
0.07663703 0.023253143 0.2268085
0.077063657 0.023242237 0.22670212
0.077417098 0.023209518 0.22638299
0.07769604 0.023154983 0.22585106
0.077935994 0.023089543 0.22521277
0.078210376 0.02303501 0.22468086
0.078557089 0.023002289 0.2243617
0.078977421 0.022991383 0.22425532
0.079397321 0.022980474 0.22414893
0.079740994 0.022947755 0.22382979
0.08012148 0.022925941 0.22361702
0.080577761 0.022925941 0.22361702
0.081072599 0.022936849 0.22372341
0.081451558 0.022915035 0.22351064
0.081790671 0.022882314 0.22319148
0.08205007 0.022827782 0.22265957
0.082307309 0.022773247 0.22212766
0.082562372 0.022718715 0.22159575
0.08285512 0.022675088 0.22117022
0.083186194 0.022642367 0.22085106
0.083636835 0.022642367 0.22085106
0.084087476 0.022642367 0.22085106
0.08453811 0.022642367 0.22085106
0.084865935 0.022609646 0.22053191
0.085233614 0.022587834 0.22031915
0.085517675 0.022544207 0.21989362
0.085841589 0.022511486 0.21957447
0.086122394 0.022467859 0.21914893
0.086359441 0.022413326 0.21861702
0.086636558 0.0223697 0.21819149
0.086996861 0.022347886 0.21797873
0.087484308 0.022358792 0.21808511
0.087972194 0.0223697 0.21819149
0.088417411 0.0223697 0.21819149
0.088819295 0.022358792 0.21808511
0.089220747 0.022347886 0.21797873
0.089490481 0.022304259 0.2175532
0.089802459 0.022271538 0.21723405
0.090113133 0.022238817 0.21691489
0.090466917 0.022217005 0.21670213
0.090909094 0.022217005 0.21670213
0.091306418 0.022206098 0.21659574
0.091658249 0.022184284 0.21638298
0.092054494 0.022173379 0.2162766
0.092450298 0.022162471 0.21617021
0.092845671 0.022151563 0.21606383
0.093194686 0.022129752 0.21585107
0.093542822 0.022107936 0.21563829
0.093843721 0.022075215 0.21531914
0.094236493 0.02206431 0.21521276
0.09467563 0.02206431 0.21521276
0.09511476 0.02206431 0.21521276
0.095506668 0.022053404 0.21510638
0.095755778 0.022009777 0.21468085
0.09600316 0.02196615 0.21425532
0.096344568 0.021944337 0.21404256
0.096685112 0.021922523 0.21382979
0.097073108 0.021911616 0.21372341
0.097363591 0.021878896 0.21340425
0.097604021 0.021835269 0.21297872
0.097891681 0.021802548 0.21265957
0.098276421 0.021791643 0.21255319
0.098611325 0.021769829 0.21234043
0.098895729 0.021737108 0.21202128
0.099128999 0.021693481 0.21159574
0.099410586 0.02166076 0.21127659
0.099741146 0.021638948 0.21106383
0.10007083 0.021617133 0.21085106
0.10045036 0.021606227 0.21074468
0.10082945 0.021595322 0.2106383
0.10120811 0.021584414 0.21053192
0.10168906 0.021595322 0.2106383
0.10211886 0.021595322 0.2106383
0.10254866 0.021595322 0.2106383
0.10292645 0.021584414 0.21053192
0.10325158 0.021562601 0.21031915
0.10357584 0.021540787 0.21010639
0.10379391 0.02149716 0.20968086
0.10401025 0.021453533 0.20925532
0.10427795 0.021420814 0.20893617
0.10470427 0.021420814 0.20893617
0.1051306 0.021420814 0.20893617
0.10555693 0.021420814 0.20893617
0.10582136 0.021388093 0.20861702
0.1060845 0.021355374 0.20829788
0.10634633 0.021322653 0.20797873
0.1067161 0.021311747 0.20787235
0.10708541 0.021300839 0.20776595
0.10739926 0.021279026 0.20755319
0.10765697 0.021246305 0.20723404
0.10791337 0.021213586 0.20691489
0.10811277 0.021169959 0.20648935
0.10836637 0.021137239 0.20617022
0.10861865 0.021104518 0.20585106
0.10898233 0.021093613 0.20574468
0.10940215 0.021093613 0.20574468
0.10982196 0.021093613 0.20574468
0.11024178 0.021093613 0.20574468
0.11054715 0.021071797 0.20553191
0.11085166 0.021049986 0.20531915
0.1111553 0.02102817 0.20510638
0.11157381 0.02102817 0.20510638
0.11205041 0.021039078 0.20521277
0.11252745 0.021049986 0.20531915
0.11282935 0.02102817 0.20510638
0.11295417 0.020973638 0.20457447
0.11307682 0.020919103 0.20404255
0.11325648 0.020875476 0.20361702
0.113375 0.020820944 0.20308511
0.11349136 0.020766411 0.2025532
0.11360554 0.020711875 0.20202127
0.11383764 0.020679157 0.20170213
0.11412868 0.020657342 0.20148936
0.11453981 0.020657342 0.20148936
0.11495095 0.020657342 0.20148936
0.1154839 0.020679157 0.20170213
0.11583433 0.020668248 0.20159574
0.11606166 0.020635528 0.2012766
0.11622611 0.020591902 0.20085107
0.11638884 0.020548275 0.20042554
0.1167358 0.020537369 0.20031916
0.11714455 0.020537369 0.20031916
0.11761572 0.020548275 0.20042554
0.11802468 0.020548275 0.20042554
0.11837078 0.020537369 0.20031916
0.11877953 0.020537369 0.20031916
0.11899838 0.020504648 0.2
0.11921593 0.020471929 0.19968085
0.11930472 0.020417394 0.19914894
0.11945528 0.020373767 0.19872341
0.11953994 0.020319235 0.19819149
0.11968681 0.020275608 0.19776596
0.12002575 0.0202647 0.19765958
0.12036425 0.020253792 0.19755319
0.12083239 0.0202647 0.19765958
0.12130095 0.020275608 0.19776596
0.12170449 0.020275608 0.19776596
0.12210803 0.020275608 0.19776596
0.12244566 0.0202647 0.19765958
0.12278285 0.020253792 0.19755319
0.12292061 0.020210166 0.19712766
0.12305663 0.020166539 0.19670212
0.12312414 0.020112006 0.19617021
0.12332346 0.020079285 0.19585106
0.12352148 0.020046566 0.19553192
0.12385303 0.020035658 0.19542553
0.12425178 0.020035658 0.19542553
0.12471841 0.020046566 0.19553192
0.12518546 0.020057473 0.1956383
-0.19831701 0.033059929 0.31617022
-0.19800442 0.033115547 0.31670213
-0.19788855 0.033204541 0.31755319
-0.19776922 0.03329353 0.31840426
-0.19738296 0.033338021 0.31882977
-0.19692932 0.033371396 0.31914893
-0.070978552 0.032359131 0.30946809
-0.070298724 0.032336883 0.30925533
-0.06945201 0.03223677 0.30829787
-0.068466716 0.032069914 0.30670214
-0.067511454 0.031914178 0.30521277
-0.066888683 0.031914178 0.30521277
-0.065553114 0.032804083 0.31372342
-0.064428709 0.032559358 0.31138298
-0.063597187 0.032459244 0.31042552
-0.062920623 0.032436997 0.31021276
-0.062159475 0.032370254 0.30957446
-0.061295226 0.032247894 0.30840427
-0.060456667 0.032136653 0.30734041
-0.059705298 0.032069914 0.30670214
-0.058997508 0.032025415 0.30627659
-0.058311734 0.031992044 0.30595744
-0.057687439 0.031992044 0.30595744
-0.057182193 0.032058787 0.30659574
-0.056674339 0.032125533 0.30723405
-0.056183286 0.032203395 0.30797872
-0.055689193 0.032281261 0.30872339
-0.055154122 0.032336883 0.30925533
-0.054523099 0.032336883 0.30925533
-0.053762298 0.032259017 0.30851063
-0.052931253 0.032136653 0.30734041
-0.052123092 0.032025415 0.30627659
-0.051390816 0.031958673 0.30563828
-0.050714165 0.031925302 0.30531916
-0.050038811 0.031891931 0.30500001
-0.049381997 0.031869683 0.30478725
-0.048726048 0.031847436 0.30457446
-0.048087772 0.031836312 0.3044681
-0.047400173 0.031791817 0.30404255
-0.046681575 0.031725071 0.30340424
-0.04593328 0.031636082 0.30255318
-0.045204397 0.031558216 0.30180851
-0.044525702 0.031513724 0.30138299
-0.043864239 0.03148035 0.30106384
-0.043234646 0.031469226 0.30095744
-0.042590421 0.031446978 0.30074468
-0.041917365 0.031402484 0.30031914
-0.041246049 0.031357989 0.29989362
-0.040576469 0.03131349 0.29946807
-0.039908625 0.031268999 0.29904255
-0.039242521 0.031224504 0.29861704
-0.038550623 0.03115776 0.29797873
-0.037847783 0.031079892 0.29723403
-0.037147984 0.031002026 0.29648936
-0.036438111 0.030913036 0.29563829
-0.035744607 0.03083517 0.29489362
-0.035092175 0.030790674 0.29446808
-0.034491323 0.030790674 0.29446808
-0.033914961 0.030812923 0.29468086
-0.033337727 0.03083517 0.29489362
-0.032712389 0.030812923 0.29468086
-0.032041546 0.030746181 0.29404256
-0.031384684 0.030690562 0.29351065
-0.030774627 0.030679436 0.29340425
-0.030175945 0.030679436 0.29340425
-0.02958799 0.030690562 0.29351065
-0.028947061 0.030646065 0.2930851
-0.028256422 0.030545952 0.29212767
-0.027539467 0.030412465 0.29085106
-0.026867149 0.030323474 0.28999999
-0.026246496 0.030290103 0.28968084
-0.025683679 0.030323474 0.28999999
-0.025119558 0.030356847 0.29031914
-0.024554133 0.030390218 0.2906383
-0.023987409 0.030423589 0.29095745
-0.02341938 0.030456962 0.2912766
-0.02282504 0.030456962 0.2912766
-0.022181982 0.030390218 0.2906383
-0.021533631 0.030312352 0.28989363
-0.020896001 0.03024561 0.28925532
-0.020298315 0.030234484 0.28914893
-0.019701067 0.030223362 0.28904256
-0.019076116 0.030167744 0.28851065
-0.018419249 0.030056503 0.2874468
-0.017753527 0.029923018 0.28617021
-0.017118543 0.029834028 0.28531915
-0.016505532 0.02977841 0.28478724
-0.015912535 0.029756162 0.28457448
-0.015308944 0.029711666 0.28414893
-0.014690546 0.0296338 0.28340426
-0.014064592 0.029533684 0.2824468
-0.013447626 0.029444695 0.28159574
-0.012863314 0.029422447 0.28138298
-0.0123031 0.02945582 0.28170213
-0.011754871 0.029522562 0.28234044
-0.011182976 0.029533684 0.2824468
-0.010598663 0.029511439 0.28223404
-0.0042220959 0.02922222 0.27946809
-0.0036504606 0.029211095 0.2793617
0.00033870179 0.029122105 0.27851063
0.00090803276 0.029155476 0.27882978
0.0014781026 0.029177723 0.27904254
0.0020466992 0.029166602 0.27893618
0.002609873 0.029099857 0.27829787
0.0031655834 0.02898862 0.27723405
0.0037112248 0.028832886 0.27574468
0.0042491397 0.028666029 0.27414894
0.0047861398 0.028532542 0.27287233
0.0053283456 0.028454676 0.27212766
0.005876713 0.028421305 0.27180851
0.0064237774 0.028387934 0.27148935
0.0069640712 0.028332315 0.27095744
0.0075021945 0.028276695 0.27042553
0.0080349781 0.028209953 0.26978722
0.0085753147 0.028176583 0.2694681
0.0091215521 0.028165458 0.2693617
0.0096635371 0.028143212 0.26914895
0.010192543 0.028087594 0.26861703
0.010723632 0.028043097 0.26819149
0.011252985 0.027998602 0.26776597
0.011775914 0.027942983 0.26723406
0.012291766 0.027876239 0.26659575
0.01279989 0.027798371 0.26585105
0.013315655 0.027742753 0.26531914
0.013862587 0.027753878 0.26542553
0.014433045 0.027809497 0.26595744
0.015005673 0.027865116 0.26648936
0.01556185 0.027887361 0.26670212
0.01608035 0.027842868 0.2662766
0.016570546 0.027753878 0.26542553
0.01705727 0.027664887 0.26457447
0.017568823 0.027620394 0.26414895
0.018093223 0.027598144 0.26393616
0.018609246 0.027564771 0.26361701
0.019116241 0.027520278 0.26319149
0.01958178 0.027420163 0.26223403
0.020059733 0.027342297 0.26148936
0.020543024 0.027275553 0.26085106
0.021015117 0.027197689 0.26010638
0.02149298 0.027130945 0.25946808
0.02197727 0.027075326 0.25893617
0.02248713 0.027053079 0.25872341
0.02299612 0.027030831 0.25851065
0.023484878 0.026986334 0.2580851
0.023952106 0.026919592 0.2574468
0.02443696 0.026875097 0.25702128
0.024971737 0.026886223 0.25712767
0.025549142 0.026941841 0.25765958
0.026107185 0.026975213 0.25797874
0.026622597 0.026964089 0.25787234
0.027103975 0.026919592 0.2574468
0.027583621 0.026875097 0.25702128
0.028061526 0.026830601 0.25659573
0.028561398 0.026808355 0.25638297
0.029036269 0.02676386 0.25595745
0.029533971 0.026741613 0.2557447
0.030018302 0.026708242 0.25542554
0.03048861 0.026663745 0.255
0.030957185 0.026619252 0.25457448
0.031450324 0.026597001 0.25436169
0.031969342 0.026597001 0.25436169
0.032488357 0.026597001 0.25436169
0.032965962 0.026563633 0.25404257
0.033414215 0.026508011 0.25351062
0.033831824 0.026430145 0.25276595
0.034260847 0.026363401 0.25212765
0.03470194 0.026307782 0.25159574
0.035200424 0.02629666 0.25148937
0.035683364 0.026274411 0.25127658
0.036119461 0.026218792 0.25074467
0.03649123 0.026118681 0.24978724
0.036874842 0.026029689 0.24893618
0.037286934 0.025962945 0.24829787
0.037777387 0.025951823 0.24819149
0.038283814 0.025951823 0.24819149
0.038806867 0.025962945 0.24829787
0.03936404 0.025996318 0.24861702
0.039939579 0.026040813 0.24904256
0.040430464 0.026029689 0.24893618
0.04083344 0.025962945 0.24829787
0.041162964 0.025851708 0.24723405
0.04154193 0.025773842 0.24648936
0.04202674 0.025762718 0.24638298
0.042602926 0.025807213 0.24680851
0.043162271 0.025840584 0.24712765
0.043666527 0.025840584 0.24712765
0.044094726 0.025796089 0.24670213
0.044444263 0.0257071 0.24585107
0.044790324 0.025618108 0.245
0.045132909 0.025529118 0.24414894
0.045531675 0.0254735 0.24361703
0.045968466 0.025440129 0.24329787
0.046444591 0.025429005 0.2431915
0.046961349 0.025440129 0.24329787
0.047478542 0.02545125 0.24340425
0.048017137 0.0254735 0.24361703
0.048535414 0.025484623 0.24372341
0.048989918 0.025462374 0.24351063
0.049400315 0.025417879 0.2430851
0.049765304 0.025351137 0.24244681
0.050127685 0.025284393 0.2418085
0.050509736 0.025228774 0.24127659
0.050867129 0.025162034 0.2406383
0.051221911 0.02509529 0.23999999
0.051597014 0.025039671 0.23946808
0.052039366 0.025017424 0.23925532
0.052550912 0.025028547 0.2393617
0.053086467 0.025050795 0.23957446
0.053575311 0.025050795 0.23957446
0.054088164 0.025061918 0.23968086
0.054552998 0.025050795 0.23957446
0.055041842 0.025050795 0.23957446
0.055481371 0.025028547 0.2393617
0.055920027 0.025006298 0.23914893
0.056332726 0.024972929 0.23882979
0.05679474 0.024961803 0.2387234
0.057307377 0.024972929 0.23882979
0.057820443 0.024984052 0.23893617
0.058282025 0.024972929 0.23882979
0.058664639 0.024928434 0.23840426
0.058966327 0.024850566 0.23765957
0.059318203 0.024794947 0.23712766
0.059694737 0.024750452 0.23670213
0.060150675 0.024739329 0.23659575
0.060578912 0.024717079 0.23638298
0.061006285 0.024694834 0.23617022
0.061349694 0.024639213 0.23563829
0.061635107 0.024561347 0.23489362
0.06194561 0.024494603 0.23425531
0.062338557 0.024461234 0.23393618
0.062787324 0.024450108 0.23382978
0.063264444 0.024450108 0.23382978
0.063712575 0.024438985 0.2337234
0.064131044 0.024416739 0.23351064
0.064519212 0.024383366 0.23319149
0.064906076 0.024349995 0.23287234
0.065321513 0.024327748 0.23265958
0.06573607 0.0243055 0.2324468
0.066240676 0.024316624 0.2325532
0.066745713 0.024327748 0.23265958
0.067251183 0.024338871 0.23276596
0.067695178 0.024327748 0.23265958
0.068045236 0.024283253 0.23223405
0.068362162 0.024227634 0.23170213
0.068676919 0.024172014 0.23117021
0.069053151 0.024138644 0.23085107
0.069460116 0.024116395 0.2306383
0.06986621 0.024094148 0.23042554
0.070303909 0.024083024 0.23031914
0.070708491 0.024060776 0.23010638
0.07114511 0.024049653 0.23
0.071548171 0.024027405 0.22978723
0.07191702 0.023994034 0.22946809
0.072284564 0.023960663 0.22914894
0.072617039 0.023916168 0.22872341
0.07298176 0.023882795 0.22840425
0.073345184 0.023849424 0.2280851
0.073638447 0.023793805 0.22755319
0.073964186 0.023749311 0.22712766
0.074323051 0.023715938 0.2268085
0.074785843 0.023715938 0.2268085
0.075319231 0.023738187 0.22702128
0.075853482 0.023760432 0.22723404
0.076317146 0.023760432 0.22723404
0.07670892 0.023738187 0.22702128
0.077099822 0.023715938 0.2268085
0.077380717 0.023660319 0.22627659
0.077622846 0.023593577 0.2256383
0.077825554 0.023515711 0.22489361
0.078099281 0.023460092 0.2243617
0.078482583 0.023437843 0.22414893
0.078939952 0.023437843 0.22414893
0.079321958 0.023415595 0.22393617
0.079665191 0.023382224 0.22361702
0.080007128 0.023348855 0.22329788
0.080424421 0.023337729 0.22319148
0.080879837 0.023337729 0.22319148
0.081335254 0.023337729 0.22319148
0.081673719 0.023304358 0.22287235
0.081932463 0.02324874 0.22234042
0.082189046 0.023193119 0.22180851
0.082443461 0.023137501 0.2212766
0.0826957 0.023081882 0.22074468
0.08302591 0.023048511 0.22042553
0.083475687 0.023048511 0.22042553
0.084006466 0.02307076 0.2206383
0.084456675 0.02307076 0.2206383
0.084784061 0.023037387 0.22031915
0.085027836 0.022981768 0.21978724
0.085310809 0.022937274 0.21936171
0.085675232 0.022915024 0.21914893
0.085996971 0.022881653 0.21882978
0.086275391 0.022837158 0.21840425
0.086552076 0.022792663 0.21797873
0.086954392 0.02278154 0.21787234
0.087398954 0.02278154 0.21787234
0.087843515 0.02278154 0.21787234
0.088288076 0.02278154 0.21787234
0.088732637 0.02278154 0.21787234
0.089090116 0.022759292 0.21765958
0.089359201 0.022714797 0.21723405
0.08958257 0.022659179 0.21670213
0.08980377 0.022603558 0.21617021
0.090111621 0.022570187 0.21585107
0.090507425 0.022559064 0.21574467
0.09094765 0.022559064 0.21574467
0.091387868 0.022559064 0.21574467
0.091828085 0.022559064 0.21574467
0.092268303 0.022559064 0.21574467
0.092662811 0.02254794 0.21563829
0.093010955 0.022525692 0.21542554
0.093312077 0.022492321 0.21510638
0.093611896 0.022458948 0.21478723
0.094050162 0.022458948 0.21478723
0.094582029 0.022481197 0.215
0.09511476 0.022503445 0.21521276
0.095459431 0.022481197 0.215
0.095708333 0.022436703 0.21457447
0.095907822 0.022381084 0.21404256
0.096200913 0.022347711 0.21372341
0.096540801 0.022325464 0.21351063
0.096879825 0.022303216 0.21329787
0.097169444 0.022269845 0.21297872
0.097457759 0.022236472 0.21265957
0.097793743 0.022214226 0.21244681
0.098128855 0.022191977 0.21223404
0.098512515 0.022180853 0.21212766
0.098746866 0.022136359 0.21170212
0.098979481 0.022091864 0.21127659
0.09926042 0.022058493 0.21095745
0.099540055 0.022025121 0.2106383
0.099868871 0.022002874 0.21042553
0.10024753 0.02199175 0.21031915
0.10062576 0.021980627 0.21021277
0.10110583 0.02199175 0.21031915
0.1016377 0.022013998 0.21053192
0.10211886 0.022025121 0.2106383
0.10254866 0.022025121 0.2106383
0.10287444 0.022002874 0.21042553
0.10314713 0.021969503 0.21010639
0.10336607 0.021925008 0.20968086
0.10353062 0.021869389 0.20914894
0.10379874 0.021836016 0.20882979
0.10417176 0.021824894 0.20872341
0.10465096 0.021836016 0.20882979
0.1051306 0.02184714 0.20893617
0.10555693 0.02184714 0.20893617
0.10582136 0.021813769 0.20861702
0.10597614 0.02175815 0.2080851
0.10623754 0.021724777 0.20776595
0.10655225 0.021702532 0.20755319
0.10692093 0.021691408 0.20744681
0.10728916 0.021680282 0.20734042
0.10754644 0.021646913 0.20702128
0.10774693 0.021602418 0.20659575
0.10800138 0.021569045 0.2062766
0.10819861 0.02152455 0.20585106
0.10845024 0.021491179 0.20553191
0.10870058 0.021457808 0.20521277
0.10906274 0.021446683 0.20510638
0.10948125 0.021446683 0.20510638
0.10989976 0.021446683 0.20510638
0.11026105 0.021435561 0.205
0.11056449 0.021413313 0.20478724
0.11098234 0.021413313 0.20478724
0.11140021 0.021413313 0.20478724
0.11193424 0.021435561 0.205
0.11229423 0.021424437 0.20489362
0.11253674 0.021391064 0.20457447
0.11266048 0.021335445 0.20404255
0.11272309 0.021268703 0.20340426
0.11290144 0.021224208 0.20297873
0.11301865 0.021168588 0.2024468
0.11319332 0.021124093 0.20202127
0.11330642 0.021068474 0.20148936
0.11353742 0.021035103 0.20117021
0.11382739 0.021012856 0.20095745
0.11429791 0.021023979 0.20106383
0.11476886 0.021035103 0.20117021
0.11530117 0.021057351 0.20138298
0.11571208 0.021057351 0.20138298
0.11587763 0.021012856 0.20095745
0.11597987 0.020957237 0.20042554
0.11614172 0.020912742 0.2
0.11642583 0.020890493 0.19978723
0.1168957 0.020901619 0.19989362
0.117366 0.020912742 0.2
0.11789939 0.020934988 0.20021276
0.11830791 0.020934988 0.20021276
0.11859029 0.020912742 0.2
0.11880849 0.020879369 0.19968085
0.11896187 0.020834874 0.19925532
0.11904979 0.020779256 0.19872341
0.11913554 0.020723637 0.19819149
0.11915495 0.020656893 0.19755319
0.11923613 0.020601274 0.19702128
0.11957356 0.020590151 0.1969149
0.12004016 0.020601274 0.19702128
0.12050721 0.020612398 0.19712766
0.12090944 0.020612398 0.19712766
0.12131168 0.020612398 0.19712766
0.12164823 0.020601274 0.19702128
0.12211614 0.020612398 0.19712766
0.12251838 0.020612398 0.19712766
0.12278794 0.020590151 0.1969149
0.12285697 0.020534532 0.19638298
0.12285706 0.02046779 0.19574468
0.12292154 0.020412171 0.19521277
0.12311824 0.020378798 0.19489361
0.12351592 0.020378798 0.19489361
0.12398123 0.020389922 0.19499999
0.12444699 0.020401048 0.19510639
0.12484509 0.020401048 0.19510639
-0.1985839 0.033750426 0.31659573
-0.19827046 0.033807132 0.31712765
-0.19815372 0.033897858 0.31797871
-0.19803351 0.033988584 0.31882977
-0.063575394 0.033081315 0.31031916
-0.062920623 0.033069976 0.31021276
-0.062116757 0.032979246 0.3093617
-0.061252933 0.032854497 0.30819148
-0.060393892 0.032729752 0.30702129
-0.056183286 0.032831818 0.30797872
-0.055708386 0.032922544 0.30882978
-0.055192068 0.03299059 0.30946809
-0.054541849 0.032979246 0.3093617
-0.053780839 0.032899864 0.30861703
-0.052912936 0.032752432 0.30723405
-0.052141197 0.032661706 0.30638298
-0.051462371 0.032627683 0.30606383
-0.050802518 0.032605 0.30585107
-0.050126076 0.032570977 0.30553192
-0.049433701 0.032525614 0.30510637
-0.048726048 0.032468908 0.30457446
-0.048087772 0.032457571 0.3044681
-0.047416762 0.032423548 0.30414894
-0.046730682 0.032378182 0.30372339
-0.04603019 0.032321479 0.30319148
-0.045315932 0.032253433 0.30255318
-0.04462 0.032196727 0.30202127
-0.043957241 0.032162707 0.30170214
-0.043280493 0.032117341 0.30127659
-0.042575356 0.032049295 0.30063829
-0.041872822 0.031981252 0.30000001
-0.041202154 0.031935889 0.29957446
-0.040547639 0.031901866 0.29925531
-0.039894428 0.031867843 0.29893616
-0.03922854 0.03182248 0.29851064
-0.038523097 0.031743094 0.29776597
-0.037820689 0.031663708 0.29702127
-0.037094671 0.031561643 0.29606384
-0.036398776 0.031482253 0.29531914
-0.03573171 0.031425551 0.29478723
-0.035104856 0.031402867 0.29457447
-0.034516245 0.031414211 0.29468086
-0.033927202 0.031425551 0.29478723
-0.033325698 0.031425551 0.29478723
-0.032665148 0.031368844 0.29425532
-0.031983584 0.031289458 0.29351065
-0.031327806 0.031232756 0.29297873
-0.030729994 0.031232756 0.29297873
-0.030175945 0.031278118 0.29340425
-0.029609436 0.031312142 0.2937234
-0.02898909 0.031289458 0.29351065
-0.02832845 0.031221414 0.29287234
-0.027640197 0.031119345 0.29191488
-0.026995275 0.03106264 0.29138297
-0.02639108 0.031051302 0.2912766
-0.025806161 0.03106264 0.29138297
-0.025230015 0.031085325 0.29159576
-0.024652997 0.031108005 0.29180852
-0.024110196 0.031176051 0.29244682
-0.023556236 0.031232756 0.29297873
-0.022966757 0.031244095 0.2930851
-0.022311892 0.031164709 0.29234043
-0.021612652 0.031017279 0.29095745
-0.02092674 0.030881187 0.28968084
-0.020328188 0.030869847 0.28957447
-0.019722821 0.030847166 0.28936172
-0.019097216 0.030790459 0.28882977
-0.018432884 0.030665712 0.28765959
-0.017760128 0.030518282 0.28627661
-0.017105779 0.030393532 0.28510639
-0.016487034 0.030325485 0.28446808
-0.015894689 0.030302804 0.28425533
-0.015297481 0.030268781 0.28393617
-0.014685032 0.030200735 0.28329787
-0.014059296 0.030098669 0.28234044
-0.013442547 0.030007942 0.28148937
0.0075021945 0.028828491 0.27042553
0.0080318106 0.028749105 0.26968086
0.0085719284 0.028715082 0.2693617
0.0091215521 0.028715082 0.2693617
0.0096673556 0.02870374 0.26925531
0.010204652 0.028669717 0.26893616
0.010732139 0.028613012 0.26840425
0.011257455 0.02855631 0.26787233
0.011775914 0.028488265 0.26723406
0.012291766 0.028420219 0.26659575
0.01279989 0.028340831 0.26585105
0.013320995 0.02829547 0.26542553
0.013868144 0.028306812 0.26553193
0.014444591 0.028374854 0.2661702
0.015017653 0.028431559 0.26670212
0.015568058 0.028442901 0.26680851
0.016073925 0.028374854 0.2661702
0.016557263 0.028272789 0.26521277
0.017043553 0.028182061 0.26436171
0.017554671 0.028136697 0.26393616
