# .PCD v0.7 - Point Cloud Data file format
VERSION 0.7
FIELDS x y z
SIZE 4 4 4
TYPE F F F
COUNT 1 1 1
WIDTH 1408
HEIGHT 1
VIEWPOINT 0 0 0 1 0 0 0
POINTS 1408
DATA ascii
-0.1280648 0.092091218 0.27478725
-0.12775092 0.09226948 0.27531916
-0.12743486 0.092447743 0.27585107
-0.12711664 0.092626005 0.27638298
-0.12665011 0.092697307 0.27659574
-0.12613422 0.092732966 0.27670214
-0.12552133 0.092697307 0.27659574
-0.12500502 0.092732966 0.27670214
-0.12448825 0.09276861 0.2768085
-0.12392344 0.09276861 0.2768085
-0.12331121 0.092732966 0.27670214
-0.08673659 0.10521144 0.31393617
-0.086329415 0.10549667 0.31478724
-0.085918762 0.10578189 0.3156383
-0.085504644 0.10606711 0.31648937
-0.085087053 0.10635234 0.31734043
-0.084637672 0.1066019 0.3180851
-0.084185258 0.10685147 0.31882977
-0.13198966 0.092651911 0.27478725
-0.13142896 0.092651911 0.27478725
-0.13081759 0.092616037 0.27468085
-0.13020666 0.092580162 0.27457446
-0.12954594 0.092508428 0.2743617
-0.12898612 0.092508428 0.2743617
-0.12852588 0.092580162 0.27457446
-0.12811437 0.092687771 0.27489361
-0.12780027 0.092867121 0.27542552
-0.12748399 0.093046471 0.27595744
-0.12716556 0.093225822 0.27648935
-0.12669882 0.093297563 0.27670214
-0.12613422 0.093297563 0.27670214
-0.12552133 0.093261689 0.27659574
-0.12495695 0.093261689 0.27659574
-0.12444042 0.093297563 0.27670214
-0.12392344 0.093333431 0.2768085
-0.084581062 0.10717921 0.31787235
-0.084157176 0.10746617 0.31872341
-0.13147865 0.092851728 0.27372339
-0.1310219 0.092923909 0.27393618
-0.13056427 0.092996083 0.27414894
-0.13000488 0.092996083 0.27414894
-0.12944549 0.092996083 0.27414894
-0.1289361 0.093032159 0.27425531
-0.12852588 0.093140423 0.27457446
-0.12811437 0.093248688 0.27489361
-0.12780027 0.093429118 0.27542552
-0.12748399 0.093609549 0.27595744
-0.12711664 0.093753904 0.27638298
-0.12669882 0.093862168 0.27670214
-0.12608573 0.093826078 0.27659574
-0.12547305 0.093789987 0.27648935
-0.12490889 0.093789987 0.27648935
-0.12439257 0.093826078 0.27659574
-0.12382819 0.093826078 0.27659574
-0.13750672 0.095661104 0.28031915
-0.13646702 0.095334366 0.2793617
-0.13172929 0.093192436 0.27308512
-0.13122316 0.093228728 0.27319148
-0.13081837 0.093337648 0.27351063
-0.13041227 0.09344656 0.27382979
-0.12990399 0.093482867 0.27393618
-0.12939525 0.093519166 0.27404255
-0.12898612 0.093628079 0.2743617
-0.12857568 0.093736991 0.27468085
-0.12821352 0.093882203 0.27510637
-0.12784964 0.094027422 0.27553192
-0.12748399 0.094172634 0.27595744
-0.1270677 0.094281547 0.27627659
-0.12660138 0.094354153 0.27648935
-0.12603723 0.094354153 0.27648935
-0.12542479 0.094317853 0.27638298
-0.12481277 0.094281547 0.27627659
-0.12424903 0.094281547 0.27627659
-0.12368531 0.094281547 0.27627659
-0.1382883 0.096379168 0.28074467
-0.13745454 0.096196562 0.28021276
-0.13620719 0.095721789 0.27882978
-0.13460325 0.094991371 0.27670214
-0.1327503 0.09407834 0.27404255
-0.13172929 0.093749657 0.27308512
-0.13117206 0.093749657 0.27308512
-0.13076748 0.093859211 0.27340424
-0.13041227 0.094005302 0.27382979
-0.13000488 0.094114862 0.27414894
-0.12954594 0.0941879 0.2743617
-0.12913616 0.094297469 0.27468085
-0.12872508 0.094407029 0.27500001
-0.12831269 0.094516598 0.27531916
-0.12789901 0.094626158 0.27563831
-0.12743486 0.094699204 0.27585107
-0.12696984 0.094772242 0.27606383
-0.12650397 0.09484528 0.27627659
-0.12598874 0.094881803 0.27638298
-0.12537651 0.09484528 0.27627659
-0.12476472 0.094808765 0.27617022
-0.12415335 0.094772242 0.27606383
-0.12354242 0.094735719 0.27595744
-0.13880855 0.096915282 0.28063831
-0.1380787 0.096805066 0.28031915
-0.13708925 0.096511163 0.27946809
-0.13568752 0.095923349 0.27776596
-0.13408574 0.095188595 0.27563831
-0.13269877 0.094600782 0.27393618
-0.13172929 0.094306879 0.27308512
-0.13117206 0.094306879 0.27308512
-0.13081837 0.094453827 0.27351063
-0.13051359 0.094637513 0.27404255
-0.13015622 0.094784468 0.27446809
-0.1297971 0.094931416 0.27489361
-0.12938623 0.095041633 0.27521276
-0.12897407 0.095151849 0.27553192
-0.12846144 0.095188595 0.27563831
-0.12789901 0.095188595 0.27563831
-0.12738571 0.095225327 0.27574468
-0.12687199 0.095262066 0.27585107
-0.12640655 0.095335543 0.27606383
-0.12594023 0.095409013 0.27627659
-0.12537651 0.095409013 0.27627659
-0.12471665 0.095335543 0.27606383
-0.12405767 0.095262066 0.27585107
-0.12344717 0.095225327 0.27574468
-0.13854545 0.097303145 0.2801064
-0.13771188 0.097118355 0.27957445
-0.13651522 0.096674897 0.27829787
-0.1350639 0.096046656 0.27648935
-0.13361998 0.095418423 0.27468085
-0.13238958 0.094938003 0.27329788
-0.13157533 0.094753228 0.27276596
-0.13112096 0.094827138 0.27297872
-0.13076748 0.09497495 0.27340424
-0.13051359 0.095196687 0.27404255
-0.13025711 0.095418423 0.27468085
-0.1299478 0.095603198 0.27521276
-0.12958629 0.095751025 0.27563831
-0.12907365 0.095787972 0.27574468
-0.12851101 0.095787972 0.27574468
-0.12784964 0.095714062 0.27553192
-0.12728742 0.095714062 0.27553192
-0.12677415 0.095751025 0.27563831
-0.12630913 0.095824935 0.27585107
-0.12584326 0.095898837 0.27606383
-0.12532823 0.095935799 0.27617022
-0.12471665 0.095898837 0.27606383
-0.12405767 0.095824935 0.27585107
-0.1388528 0.097688816 0.27957445
-0.13812451 0.097577311 0.27925533
-0.13708307 0.097242758 0.27829787
-0.13583681 0.09675952 0.27691489
-0.13444029 0.096164763 0.27521276
-0.13310248 0.095607176 0.27361703
-0.13208036 0.095272623 0.27265957
-0.13142139 0.095198281 0.27244681
-0.13101876 0.095309801 0.27276596
-0.13071661 0.095495656 0.27329788
-0.13046294 0.095718697 0.27393618
-0.13025711 0.095978901 0.27468085
-0.1299478 0.096164763 0.27521276
-0.12953627 0.096276276 0.27553192
-0.12902386 0.096313454 0.27563831
-0.12841184 0.096276276 0.27553192
-0.12775092 0.096201934 0.27531916
-0.12718913 0.096201934 0.27531916
-0.12672521 0.096276276 0.27553192
-0.12626041 0.096350618 0.27574468
-0.12579475 0.09642496 0.27595744
-0.12527995 0.096462138 0.27606383
-0.12471665 0.096462138 0.27606383
-0.12405767 0.096387796 0.27585107
-0.13915801 0.098072335 0.27904254
-0.13848296 0.097997561 0.27882978
-0.13765092 0.097810611 0.27829787
-0.13655905 0.097436719 0.27723405
-0.13526277 0.096913271 0.27574468
-0.13397259 0.096389815 0.27425531
-0.13284373 0.095978536 0.27308512
-0.1319773 0.095754199 0.27244681
-0.13137005 0.095716804 0.27234042
-0.13091657 0.095791593 0.27255321
-0.13056396 0.095941149 0.27297872
-0.13031094 0.096165486 0.27361703
-0.13000488 0.096352428 0.27414894
-0.12969664 0.096539378 0.27468085
-0.12933621 0.096688926 0.27510637
-0.12882467 0.096726321 0.27521276
-0.1282631 0.096726321 0.27521276
-0.12765218 0.096688926 0.27510637
-0.12709083 0.096688926 0.27510637
-0.12662736 0.096763715 0.27531916
-0.12616299 0.096838489 0.27553192
-0.12574627 0.096950658 0.27585107
-0.12523167 0.096988045 0.27595744
-0.12471665 0.097025439 0.27606383
-0.1389458 0.098491289 0.27861702
-0.13827163 0.098416083 0.27840427
-0.13738784 0.098190442 0.27776596
-0.13629705 0.097814381 0.27670214
-0.13505405 0.097325496 0.27531916
-0.13376471 0.096799001 0.27382979
-0.13274021 0.096460536 0.27287233
-0.1319773 0.096310116 0.27244681
-0.13142139 0.096310116 0.27244681
-0.13096766 0.09638533 0.27265957
-0.13056396 0.096498147 0.27297872
-0.13015895 0.096610971 0.27329788
-0.12980308 0.096761391 0.27372339
-0.12944549 0.096911825 0.27414894
-0.12908614 0.097062245 0.27457446
-0.12862548 0.097137466 0.27478725
-0.12811437 0.097175062 0.27489361
-0.1275041 0.097137466 0.27478725
-0.12694341 0.097137466 0.27478725
-0.12648056 0.097212672 0.27500001
-0.12601686 0.097287886 0.27521276
-0.12560079 0.097400703 0.27553192
-0.12513512 0.097475916 0.27574468
-0.13908815 0.098757215 0.27776596
-0.13862748 0.098832853 0.27797872
-0.13795461 0.098757215 0.27776596
-0.13722998 0.098643743 0.27744681
-0.13619223 0.098303325 0.27648935
-0.13500185 0.097849444 0.27521276
-0.13371274 0.097319916 0.27372339
-0.13263671 0.09694168 0.27265957
-0.13192576 0.096828207 0.27234042
-0.13147271 0.096903861 0.27255321
-0.13101876 0.096979506 0.27276596
-0.13056396 0.097055152 0.27297872
-0.13005762 0.097092979 0.27308512
-0.12960128 0.097168624 0.27329788
-0.12924455 0.097319916 0.27372339
-0.1289361 0.097509034 0.27425531
-0.12852588 0.097622499 0.27457446
-0.12801521 0.097660333 0.27468085
-0.12740536 0.097622499 0.27457446
-0.12684511 0.097622499 0.27457446
-0.12628484 0.097622499 0.27457446
-0.12582202 0.09769816 0.27478725
-0.1254068 0.097811617 0.27510637
-0.13828911 0.098753378 0.27617022
-0.13799085 0.098943584 0.27670214
-0.13753192 0.099019662 0.27691489
-0.13696688 0.099019662 0.27691489
-0.13603504 0.098753378 0.27617022
-0.1348453 0.098296888 0.27489361
-0.13355684 0.097764313 0.27340424
-0.13242972 0.097345874 0.27223405
-0.13177116 0.097269788 0.27202126
-0.13137005 0.097383909 0.27234042
-0.13101876 0.09753608 0.27276596
-0.13056396 0.097612157 0.27297872
-0.13000695 0.097612157 0.27297872
-0.1295004 0.0976502 0.27308512
-0.1291441 0.097802356 0.27351063
-0.12878607 0.097954527 0.27393618
-0.1284263 0.098106682 0.2743617
-0.12791605 0.098144725 0.27446809
-0.12735601 0.098144725 0.27446809
-0.12669766 0.09806864 0.27425531
-0.12613806 0.09806864 0.27425531
-0.12562716 0.098106682 0.2743617
-0.13788985 0.098628245 0.27425531
-0.13749005 0.098743021 0.27457446
-0.13719505 0.098934308 0.27510637
-0.13689789 0.099125609 0.27563831
-0.13633546 0.099125609 0.27563831
-0.13551101 0.098934308 0.27510637
-0.13437565 0.098513484 0.27393618
-0.13314112 0.098016135 0.27255321
-0.13211921 0.097671814 0.27159575
-0.13151349 0.097633548 0.27148935
-0.13121611 0.097824834 0.27202126
-0.13091657 0.098016135 0.27255321
-0.13051307 0.098130897 0.27287233
-0.13000695 0.098169163 0.27297872
-0.1295004 0.098207422 0.27308512
-0.12904364 0.098283939 0.27329788
-0.12868603 0.098436959 0.27372339
-0.12837648 0.098628245 0.27425531
-0.12791605 0.09870477 0.27446809
-0.12735601 0.09870477 0.27446809
-0.12669766 0.098628245 0.27425531
-0.12608914 0.098589994 0.27414894
-0.13714103 0.098649219 0.27276596
-0.13674428 0.098764643 0.27308512
-0.13645232 0.098957017 0.27361703
-0.13615818 0.099149391 0.27414894
-0.13559879 0.099149391 0.27414894
-0.1347774 0.098957017 0.27361703
-0.13369724 0.098572269 0.27255321
-0.13262142 0.098187514 0.27148935
-0.1318087 0.09799514 0.27095744
-0.13130736 0.098033622 0.27106383
-0.13106216 0.098264471 0.27170214
-0.13081436 0.098495312 0.27234042
-0.1304622 0.098649219 0.27276596
-0.13000695 0.098726168 0.27297872
-0.12944995 0.098726168 0.27297872
-0.12899341 0.09880311 0.27319148
-0.12863603 0.098957017 0.27361703
-0.1283267 0.099149391 0.27414894
-0.12791605 0.099264815 0.27446809
-0.12735601 0.099264815 0.27446809
-0.12669766 0.099187858 0.27425531
-0.12608914 0.099149391 0.27414894
-0.13698056 0.099089712 0.27244681
-0.13653119 0.099167094 0.27265957
-0.136134 0.099283166 0.27297872
-0.13568266 0.099360548 0.27319148
-0.13501999 0.099283166 0.27297872
-0.13414857 0.099051014 0.27234042
-0.1331232 0.098702796 0.27138299
-0.13225766 0.098470643 0.27074468
-0.13160171 0.098393261 0.27053192
-0.13125582 0.098548025 0.27095744
-0.13101085 0.098780178 0.27159575
-0.13076326 0.09901233 0.27223405
-0.1304622 0.099205784 0.27276596
-0.13000695 0.099283166 0.27297872
-0.1295004 0.099321865 0.27308512
-0.12904364 0.099399246 0.27329788
-0.12868603 0.09955401 0.27372339
-0.1283267 0.099708781 0.27414894
-0.12796563 0.099863544 0.27457446
-0.12740536 0.099863544 0.27457446
-0.12679596 0.099824861 0.27446809
-0.13658446 0.099762358 0.27276596
-0.13608094 0.099801257 0.27287233
-0.13547131 0.099762358 0.27276596
-0.13465166 0.099567816 0.27223405
-0.13372935 0.099295445 0.27148935
-0.13286228 0.099062003 0.27085108
-0.13215372 0.098945275 0.27053192
-0.13170521 0.099023089 0.27074468
-0.13135889 0.099178717 0.2711702
-0.13106216 0.099373274 0.27170214
-0.13081436 0.099606715 0.27234042
-0.13041131 0.099723443 0.27265957
-0.13000695 0.099840172 0.27297872
-0.12955084 0.099917985 0.27319148
-0.1291441 0.10003471 0.27351063
-0.12873605 0.10015144 0.27382979
-0.1284263 0.10034598 0.2743617
-0.12801521 0.10046271 0.27468085
-0.12745473 0.10046271 0.27468085
-0.12684511 0.10042381 0.27457446
-0.13679753 0.10047542 0.27319148
-0.13618705 0.10043631 0.27308512
-0.13536565 0.10024068 0.27255321
-0.13444118 0.099966787 0.27180851
-0.13351975 0.099692911 0.27106383
-0.1327579 0.099536404 0.27063829
-0.13220568 0.099536404 0.27063829
-0.1318087 0.09965378 0.27095744
-0.13146196 0.099810287 0.27138299
-0.13111348 0.099966787 0.27180851
-0.13081436 0.10016242 0.27234042
-0.13041131 0.1002798 0.27265957
-0.13000695 0.10039718 0.27297872
-0.12960128 0.10051455 0.27329788
-0.12919433 0.10063194 0.27361703
-0.12878607 0.10074931 0.27393618
-0.1284263 0.10090581 0.2743617
-0.12801521 0.10102319 0.27468085
-0.1275041 0.10106232 0.27478725
-0.1368508 0.10107221 0.27329788
-0.136134 0.10095418 0.27297872
-0.13520715 0.10067879 0.27223405
-0.13417809 0.10032469 0.27127659
-0.13331014 0.10008863 0.27063829
-0.13270573 0.10004929 0.27053192
-0.13225766 0.10012798 0.27074468
-0.1319122 0.10028534 0.2711702
-0.13151349 0.10040338 0.27148935
-0.13111348 0.10052141 0.27180851
-0.13076326 0.10067879 0.27223405
-0.13036042 0.10079681 0.27255321
-0.12995628 0.10091484 0.27287233
-0.12955084 0.10103286 0.27319148
-0.1291441 0.10115089 0.27351063
-0.12873605 0.10126892 0.27382979
-0.1282769 0.10134761 0.27404255
-0.12781689 0.10142629 0.27425531
-0.136691 0.10151119 0.27297872
-0.13592179 0.10135295 0.27255321
-0.13494296 0.10103647 0.27170214
-0.13391499 0.10068043 0.27074468
-0.13310054 0.10048262 0.27021277
-0.13260137 0.10052219 0.27031916
-0.13220568 0.10064086 0.27063829
-0.13186046 0.10079911 0.27106383
-0.13146196 0.10091779 0.27138299
-0.13101085 0.1009969 0.27159575
-0.13066106 0.10115514 0.27202126
-0.13030954 0.10131338 0.27244681
-0.12985495 0.1013925 0.27265957
-0.12944995 0.10151119 0.27297872
-0.12899341 0.10159031 0.27319148
-0.12853599 0.10166942 0.27340424
-0.12807772 0.10174855 0.27361703
-0.12756899 0.1017881 0.27372339
-0.13730149 0.10210797 0.27308512
-0.13658446 0.10198864 0.27276596
-0.13570957 0.10174997 0.27212766
-0.13467877 0.10139197 0.2711702
-0.13370453 0.10107376 0.27031916
-0.13299574 0.10095444 0.27000001
-0.13254918 0.10103399 0.27021277
-0.13220568 0.10119309 0.27063829
-0.1318087 0.10131242 0.27095744
-0.13135889 0.10139197 0.2711702
-0.13090822 0.10147154 0.27138299
-0.13055886 0.10163064 0.27180851
-0.13020778 0.10178975 0.27223405
-0.1298043 0.10190909 0.27255321
-0.1292986 0.10194886 0.27265957
-0.12884271 0.10202841 0.27287233
-0.12838596 0.10210797 0.27308512
-0.12787852 0.10214774 0.27319148
-0.13746195 0.10278516 0.27340424
-0.13658446 0.10254521 0.27276596
-0.13560347 0.10222525 0.2719149
-0.1345731 0.1018653 0.27095744
-0.1336519 0.10158534 0.27021277
-0.13299574 0.10150536 0.27000001
-0.13260137 0.10162535 0.27031916
-0.13225766 0.10178532 0.27074468
-0.1318087 0.1018653 0.27095744
-0.13130736 0.1019053 0.27106383
-0.1308569 0.10198528 0.27127659
-0.13045667 0.10210527 0.27159575
-0.130106 0.10226524 0.27202126
-0.12975362 0.10242523 0.27244681
-0.12924816 0.10246522 0.27255321
-0.12874225 0.10250521 0.27265957
-0.12828591 0.1025852 0.27287233
-0.12777893 0.10262519 0.27297872
-0.1376224 0.10346367 0.27372339
-0.13658446 0.10310178 0.27276596
-0.13549736 0.10269967 0.27170214
-0.13446744 0.10233776 0.27074468
-0.1336519 0.1021367 0.27021277
-0.13310054 0.1021367 0.27021277
-0.13270573 0.10225734 0.27053192
-0.13236159 0.10241818 0.27095744
-0.1319122 0.1024986 0.2711702
-0.13135889 0.1024986 0.2711702
-0.1308569 0.10253882 0.27127659
-0.13045667 0.10265945 0.27159575
-0.130106 0.10282029 0.27202126
-0.12975362 0.10298114 0.27244681
-0.12934905 0.10310178 0.27276596
-0.12884271 0.10314198 0.27287233
-0.12828591 0.10314198 0.27287233
-0.13861056 0.10434562 0.27457446
-0.1376224 0.1040222 0.27372339
-0.13642465 0.10353706 0.27244681
-0.13528514 0.10309234 0.27127659
-0.13436177 0.10280935 0.27053192
-0.13375713 0.10276892 0.27042553
-0.13331014 0.10284977 0.27063829
-0.13291447 0.10297106 0.27095744
-0.13251749 0.10309234 0.27127659
-0.13206746 0.1031732 0.27148935
-0.13146196 0.10313278 0.27138299
-0.13095953 0.1031732 0.27148935
-0.13050777 0.10325406 0.27170214
-0.13020778 0.10345621 0.27223405
-0.12985495 0.10361791 0.27265957
-0.12944995 0.1037392 0.27297872
-0.12889294 0.1037392 0.27297872
-0.13938652 0.10506847 0.27500001
-0.13844945 0.10478394 0.27425531
-0.13735497 0.10437749 0.27319148
-0.13610503 0.10384911 0.27180851
-0.13501988 0.10344265 0.27074468
-0.13425609 0.10328007 0.27031916
-0.13375713 0.10332071 0.27042553
-0.13341495 0.1034833 0.27085108
-0.13301884 0.10360523 0.2711702
-0.13262142 0.10372716 0.27148935
-0.13211921 0.10376781 0.27159575
-0.13156503 0.10376781 0.27159575
-0.13106216 0.10380846 0.27170214
-0.13060996 0.10388976 0.2719149
-0.13025865 0.10405233 0.27234042
-0.12990563 0.10421491 0.27276596
-0.1295004 0.10433686 0.27308512
-0.12899341 0.10437749 0.27319148
-0.13978523 0.10550701 0.27468085
-0.13911691 0.10542529 0.27446809
-0.13812724 0.10509839 0.27361703
-0.1368736 0.10456718 0.27223405
-0.13567886 0.10407682 0.27095744
-0.13475461 0.10379078 0.27021277
-0.13420326 0.10379078 0.27021277
-0.13375713 0.10387251 0.27042553
-0.13341495 0.10403597 0.27085108
-0.13301884 0.10415854 0.2711702
-0.13256946 0.10424028 0.27138299
-0.13211921 0.10432199 0.27159575
-0.13161656 0.10436286 0.27170214
-0.13111348 0.10440372 0.27180851
-0.13066106 0.10448544 0.27202126
-0.13025865 0.10460803 0.27234042
-0.1298043 0.10468976 0.27255321
-0.12934905 0.10477149 0.27276596
-0.12884271 0.10481234 0.27287233
-0.13991086 0.10573885 0.27382979
-0.1394604 0.10582101 0.27404255
-0.13868554 0.10565669 0.27361703
-0.1375902 0.1052459 0.27255321
-0.13633871 0.10471185 0.2711702
-0.13530597 0.10434215 0.27021277
-0.13459545 0.10421891 0.26989362
-0.13409759 0.10425999 0.27000001
-0.13370453 0.10438323 0.27031916
-0.13331014 0.10450646 0.27063829
-0.13286228 0.10458863 0.27085108
-0.13241355 0.10467078 0.27106383
-0.1319122 0.10471185 0.2711702
-0.13146196 0.10479403 0.27138299
-0.13101085 0.10487618 0.27159575
-0.13060996 0.10499942 0.2719149
-0.13015689 0.10508157 0.27212766
-0.12965229 0.10512266 0.27223405
-0.12909681 0.10512266 0.27223405
-0.12854134 0.10512266 0.27223405
-0.13953038 0.10600851 0.27308512
-0.13897316 0.10600851 0.27308512
-0.13814633 0.10580204 0.27255321
-0.13699944 0.10534777 0.27138299
-0.13591082 0.1049348 0.27031916
-0.13509288 0.10472831 0.26978722
-0.13454239 0.10472831 0.26978722
-0.13409759 0.10481092 0.27000001
-0.1336519 0.10489351 0.27021277
-0.13320534 0.1049761 0.27042553
-0.13270573 0.10501739 0.27053192
-0.13220568 0.10505868 0.27063829
-0.13170521 0.10509998 0.27074468
-0.13125582 0.10518258 0.27095744
-0.1308569 0.10530647 0.27127659
-0.13045667 0.10543036 0.27159575
-0.12995337 0.10547166 0.27170214
-0.12934831 0.10543036 0.27159575
-0.12874366 0.10538906 0.27148935
-0.12813948 0.10534777 0.27138299
-0.13970558 0.10627513 0.27234042
-0.13914987 0.10627513 0.27234042
-0.13848591 0.10619211 0.27212766
-0.1375532 0.10590152 0.27138299
-0.13656981 0.10556941 0.27053192
-0.13564338 0.1052788 0.26978722
-0.13503963 0.1052373 0.26968086
-0.13459545 0.10532032 0.26989362
-0.13415042 0.10540335 0.27010638
-0.13370453 0.10548639 0.27031916
-0.13320534 0.10552789 0.27042553
-0.13260137 0.10548639 0.27031916
-0.13204978 0.10548639 0.27031916
-0.13154995 0.10552789 0.27042553
-0.13110122 0.10561091 0.27063829
-0.13075426 0.10577697 0.27106383
-0.13030337 0.10586 0.27127659
-0.12980072 0.10590152 0.27138299
-0.12914564 0.10581848 0.2711702
-0.12849143 0.10573546 0.27095744
-0.12783809 0.10565243 0.27074468
-0.13937816 0.10658046 0.27170214
-0.1387694 0.10653873 0.27159575
-0.13799866 0.1063718 0.2711702
-0.13712183 0.10612142 0.27053192
-0.13624758 0.10587103 0.26989362
-0.13553642 0.10574584 0.26957446
-0.13509288 0.1058293 0.26978722
-0.13464852 0.10591277 0.27000001
-0.13425609 0.10603796 0.27031916
-0.13375713 0.10607968 0.27042553
-0.13320534 0.10607968 0.27042553
-0.13265355 0.10607968 0.27042553
-0.13204978 0.10603796 0.27031916
-0.13149822 0.10603796 0.27031916
-0.13104969 0.10612142 0.27053192
-0.13070294 0.10628834 0.27095744
-0.13030337 0.10641353 0.27127659
-0.12974983 0.10641353 0.27127659
-0.12904431 0.10628834 0.27095744
-0.12828964 0.10612142 0.27053192
-0.12763718 0.10603796 0.27031916
-0.13915986 0.10696706 0.27127659
-0.13844326 0.10684121 0.27095744
-0.13761969 0.10663148 0.27042553
-0.13674437 0.10637978 0.26978722
-0.13603278 0.10625395 0.2694681
-0.13548294 0.10625395 0.2694681
-0.13503963 0.10633785 0.26968086
-0.13464852 0.10646369 0.27000001
-0.13420326 0.10654759 0.27021277
-0.13375713 0.10663148 0.27042553
-0.13325775 0.10667343 0.27053192
-0.13270573 0.10667343 0.27053192
-0.13210174 0.10663148 0.27042553
-0.13154995 0.10663148 0.27042553
-0.13110122 0.10671537 0.27063829
-0.13075426 0.10688317 0.27106383
-0.13035446 0.10700902 0.27138299
-0.12980072 0.10700902 0.27138299
-0.12904431 0.10684121 0.27095744
-0.12828964 0.10667343 0.27053192
-0.12758693 0.10654759 0.27021277
-0.13872328 0.10718327 0.27042553
-0.13806278 0.10709894 0.27021277
-0.13724072 0.10688812 0.26968086
-0.13642085 0.1066773 0.26914895
-0.13576424 0.10659296 0.26893616
-0.13526897 0.10663513 0.26904255
-0.13482654 0.10671946 0.26925531
-0.13438325 0.1068038 0.2694681
-0.13399191 0.10693028 0.26978722
-0.13359927 0.10705677 0.27010638
-0.13320534 0.10718327 0.27042553
-0.13270573 0.10722544 0.27053192
-0.13215372 0.10722544 0.27053192
-0.13170521 0.10730977 0.27074468
-0.13130736 0.10743626 0.27106383
-0.13090822 0.10756276 0.27138299
-0.13045667 0.10764709 0.27159575
-0.12985159 0.10760492 0.27148935
-0.12909497 0.10743626 0.27106383
-0.12828964 0.10722544 0.27053192
-0.14186971 0.10887938 0.27329788
-0.14010189 0.10794698 0.27095744
-0.13883676 0.10739601 0.26957446
-0.13823214 0.10735364 0.2694681
-0.13762793 0.10731125 0.2693617
-0.13686174 0.10714171 0.26893616
-0.13609731 0.1069722 0.26851064
-0.13549572 0.10692981 0.26840425
-0.13494805 0.10692981 0.26840425
-0.13450693 0.10701458 0.26861703
-0.13406493 0.10709934 0.26882979
-0.13372773 0.10726886 0.26925531
-0.1333888 0.10743839 0.26968086
-0.13304813 0.10760792 0.27010638
-0.13265355 0.10773507 0.27042553
-0.13220568 0.10781983 0.27063829
-0.1318087 0.10794698 0.27095744
-0.13146196 0.10811651 0.27138299
-0.13106216 0.10824366 0.27170214
-0.13055886 0.10828603 0.27180851
-0.12990248 0.10820127 0.27159575
-0.12909497 0.10798936 0.27106383
-0.12834008 0.10781983 0.27063829
-0.14287089 0.10977783 0.27414894
-0.14148314 0.10913885 0.27255321
-0.13982686 0.10828686 0.27042553
-0.13845323 0.10764788 0.26882979
-0.13774097 0.10752008 0.26851064
-0.13713872 0.10747748 0.26840425
-0.13648279 0.10739228 0.26819149
-0.13577378 0.10726448 0.26787233
-0.1351735 0.10722189 0.26776597
-0.13462713 0.10722189 0.26776597
-0.13418731 0.10730708 0.26797873
-0.13374661 0.10739228 0.26819149
-0.13346355 0.10760527 0.2687234
-0.13317832 0.10781827 0.26925531
-0.13289092 0.10803127 0.26978722
-0.13254918 0.10820167 0.27021277
-0.13220568 0.10837205 0.27063829
-0.13186046 0.10854246 0.27106383
-0.13156503 0.10875545 0.27159575
-0.13111348 0.10884064 0.27180851
-0.13055886 0.10884064 0.27180851
-0.12990248 0.10875545 0.27159575
-0.12909497 0.10854246 0.27106383
-0.14320764 0.11016595 0.27372339
-0.14226104 0.10986625 0.27297872
-0.14082046 0.10918119 0.27127659
-0.13933182 0.10845332 0.2694681
-0.13817929 0.10798234 0.26829788
-0.1373044 0.10772543 0.26765957
-0.13675825 0.10772543 0.26765957
-0.13615794 0.10768262 0.26755318
-0.13550419 0.10759699 0.26734042
-0.13490498 0.10755417 0.26723406
-0.13441318 0.10759699 0.26734042
-0.13397422 0.10768262 0.26755318
-0.13358745 0.10781106 0.26787233
-0.13335788 0.10806797 0.26851064
-0.13307309 0.10828204 0.26904255
-0.13278612 0.10849612 0.26957446
-0.13249698 0.10871021 0.27010638
-0.13220568 0.10892428 0.27063829
-0.1319122 0.10913836 0.2711702
-0.13156503 0.10930964 0.27159575
-0.13111348 0.10939527 0.27180851
-0.13050777 0.10935245 0.27170214
-0.12980072 0.10922401 0.27138299
-0.12909497 0.10909556 0.27106383
-0.14231712 0.11003594 0.27202126
-0.14142942 0.10977776 0.27138299
-0.14021298 0.10926135 0.27010638
-0.13894676 0.10870191 0.2687234
-0.13790534 0.10831463 0.26776597
-0.13708611 0.10809946 0.26723406
-0.13648647 0.10805642 0.26712766
-0.13588727 0.10801338 0.26702127
-0.13534242 0.10801338 0.26702127
-0.13474387 0.10797036 0.2669149
-0.13425271 0.10801338 0.26702127
-0.13386768 0.10814249 0.26734042
-0.13358745 0.10835765 0.26787233
-0.13335788 0.10861585 0.26851064
-0.13317832 0.10891708 0.26925531
-0.13294333 0.10917529 0.26989362
-0.13260137 0.10934743 0.27031916
-0.13230963 0.10956259 0.27085108
-0.1319122 0.10969168 0.2711702
-0.13151349 0.10982078 0.27148935
-0.13101085 0.10986382 0.27159575
-0.13040556 0.10982078 0.27148935
-0.12974983 0.10973471 0.27127659
-0.14142661 0.109899 0.27031916
-0.14065325 0.10972599 0.26989362
-0.13960552 0.10933673 0.26893616
-0.13861671 0.10899074 0.26808509
-0.13774097 0.10873124 0.26744682
-0.13703154 0.10860149 0.26712766
-0.13643211 0.10855823 0.26702127
-0.13583313 0.10851499 0.2669149
-0.13528851 0.10851499 0.2669149
-0.13474387 0.10851499 0.2669149
-0.13425271 0.10855823 0.26702127
-0.13386768 0.10868798 0.26734042
-0.1336405 0.10894749 0.26797873
-0.13351639 0.10929349 0.26882979
-0.1333888 0.1096395 0.26968086
-0.13320534 0.10994224 0.27042553
-0.13286228 0.11011525 0.27085108
-0.13246551 0.11024499 0.2711702
-0.13201572 0.1103315 0.27138299
-0.13151349 0.11037474 0.27148935
-0.13095953 0.11037474 0.27148935
-0.13035446 0.1103315 0.27138299
-0.12974983 0.11028825 0.27127659
-0.14208992 0.11053751 0.27053192
-0.14092568 0.11005937 0.2693617
-0.13998798 0.1097551 0.26861703
-0.13916373 0.10953775 0.26808509
-0.1383967 0.10936389 0.26765957
-0.13768618 0.10923348 0.26734042
-0.13703154 0.10914655 0.26712766
-0.13643211 0.10910308 0.26702127
-0.13588727 0.10910308 0.26702127
-0.13534242 0.10910308 0.26702127
-0.13479756 0.10910308 0.26702127
-0.13430621 0.10914655 0.26712766
-0.13392095 0.10927696 0.26744682
-0.13374661 0.10958122 0.26819149
-0.13372773 0.11001589 0.26925531
-0.1336519 0.11040711 0.27021277
-0.13346735 0.11071137 0.27095744
-0.1331232 0.11088525 0.27138299
-0.13256946 0.11088525 0.27138299
-0.13201572 0.11088525 0.27138299
-0.13146196 0.11088525 0.27138299
-0.13090822 0.11088525 0.27138299
-0.13035446 0.11088525 0.27138299
-0.14381987 0.1120069 0.27276596
-0.14225756 0.11122058 0.27085108
-0.14081436 0.11052162 0.26914895
-0.13965532 0.1100411 0.26797873
-0.13883241 0.10982268 0.26744682
-0.13817668 0.1097353 0.26723406
-0.13757659 0.10969162 0.26712766
-0.13703154 0.10969162 0.26712766
-0.13654083 0.1097353 0.26723406
-0.13599555 0.1097353 0.26723406
-0.13550419 0.10977899 0.26734042
-0.13495868 0.10977899 0.26734042
-0.13446668 0.10982268 0.26744682
-0.13408077 0.10995372 0.26776597
-0.13385271 0.11021583 0.26840425
-0.13383341 0.11065268 0.2694681
-0.13380976 0.11108952 0.27053192
-0.13362455 0.11139531 0.27127659
-0.13317539 0.11148267 0.27148935
-0.13262142 0.11148267 0.27148935
-0.1319122 0.11135162 0.2711702
-0.13125582 0.11126425 0.27095744
-0.13070294 0.11126425 0.27095744
-0.14410032 0.11278297 0.27329788
-0.14242516 0.11190493 0.2711702
-0.14075869 0.11102691 0.26904255
-0.139489 0.11045619 0.26765957
-0.13866673 0.11023668 0.26712766
-0.13795665 0.11010498 0.26680851
-0.13741224 0.11010498 0.26680851
-0.13697696 0.11019278 0.26702127
-0.13659517 0.11032448 0.26734042
-0.13615794 0.11041228 0.26755318
-0.13571987 0.1105001 0.26776597
-0.1351735 0.1105001 0.26776597
-0.13462713 0.1105001 0.26776597
-0.13418731 0.11058789 0.26797873
-0.13390577 0.1108074 0.26851064
-0.13378057 0.11115862 0.2693617
-0.13370453 0.11155373 0.27031916
-0.13351975 0.11186104 0.27106383
-0.1331232 0.11199275 0.27138299
-0.13246551 0.11190493 0.2711702
-0.13170521 0.11172933 0.27074468
-0.13094664 0.11155373 0.27031916
-0.13039505 0.11155373 0.27031916
-0.14533368 0.11387004 0.27457446
-0.14398815 0.11325239 0.27308512
-0.14231342 0.11237001 0.27095744
-0.14081436 0.11162 0.26914895
-0.13959987 0.11109057 0.26787233
-0.13866673 0.11078174 0.26712766
-0.13784663 0.11056115 0.26659575
-0.13724786 0.11051703 0.26648936
-0.13681324 0.11060527 0.26670212
-0.13659517 0.11086998 0.26734042
-0.13632037 0.11109057 0.26787233
-0.13593554 0.11122293 0.26819149
-0.13544202 0.11126705 0.26829788
-0.13489456 0.11126705 0.26829788
-0.13434711 0.11126705 0.26829788
-0.13390577 0.11135529 0.26851064
-0.13362207 0.11157588 0.26904255
-0.13349403 0.11192883 0.26989362
-0.13331014 0.11223765 0.27063829
-0.13291447 0.11237001 0.27095744
-0.13225766 0.11228178 0.27074468
-0.13144645 0.11206119 0.27021277
-0.13063744 0.11184059 0.26968086
-0.12993321 0.11170824 0.2693617
-0.1448269 0.11403129 0.27361703
-0.14353941 0.11345492 0.27223405
-0.1421458 0.11278988 0.27063829
-0.14087 0.11221352 0.26925531
-0.1397662 0.11177017 0.26819149
-0.13872196 0.11137115 0.26723406
-0.13779162 0.1110608 0.26648936
-0.13708349 0.11092778 0.2661702
-0.1367041 0.1110608 0.26648936
-0.13654083 0.11137115 0.26723406
-0.13637452 0.1116815 0.26797873
-0.13609731 0.11190318 0.26851064
-0.13565683 0.11199185 0.2687234
-0.13505504 0.11194751 0.26861703
-0.13440038 0.11185884 0.26840425
-0.13385271 0.11185884 0.26840425
-0.13346355 0.11199185 0.2687234
-0.13328357 0.1123022 0.2694681
-0.13304813 0.11256821 0.27010638
-0.13265355 0.11270121 0.27042553
-0.13204978 0.11265688 0.27031916
-0.13123944 0.1124352 0.26978722
-0.13043129 0.11221352 0.26925531
-0.12967663 0.11203618 0.26882979
-0.14386965 0.11383219 0.27180851
-0.14309068 0.11365399 0.27138299
-0.14203404 0.11325301 0.27042553
-0.14103699 0.11289658 0.26957446
-0.14004341 0.11254016 0.2687234
-0.13894285 0.11209464 0.26765957
-0.13784663 0.11164912 0.26659575
-0.13702871 0.11142635 0.26606384
-0.13659495 0.11151545 0.2662766
-0.13637777 0.11178277 0.2669149
-0.13626625 0.1121392 0.26776597
-0.13604338 0.11240651 0.26840425
-0.13565683 0.11254016 0.2687234
-0.13510852 0.11254016 0.2687234
-0.13440038 0.11240651 0.26840425
-0.13379967 0.11236196 0.26829788
-0.13335788 0.11245106 0.26851064
-0.13307309 0.11267383 0.26904255
-0.13278612 0.11289658 0.26957446
-0.13239262 0.11303025 0.26989362
-0.13178994 0.11298569 0.26978722
-0.1310842 0.11285204 0.2694681
-0.13032822 0.11267383 0.26904255
-0.14419816 0.11420774 0.27138299
-0.14353178 0.11411819 0.2711702
-0.14275412 0.11393911 0.27074468
-0.14197817 0.11376004 0.27031916
-0.1411483 0.11353618 0.26978722
-0.14020972 0.1132228 0.26904255
-0.13905329 0.11273032 0.26787233
-0.13790163 0.11223786 0.26670212
-0.13697392 0.11192447 0.26595744
-0.13648582 0.11196925 0.26606384
-0.13621469 0.11219309 0.26659575
-0.13599555 0.11246172 0.26723406
-0.13582771 0.1127751 0.26797873
-0.13549572 0.11295418 0.26840425
-0.13500154 0.11299895 0.26851064
-0.13440038 0.11295418 0.26840425
-0.13379967 0.11290941 0.26829788
-0.13330504 0.11295418 0.26840425
-0.13291523 0.11308849 0.2687234
-0.13257653 0.11326757 0.26914895
-0.1321317 0.1133571 0.2693617
-0.13153011 0.11331233 0.26925531
-0.1308772 0.1132228 0.26904255
-0.13022517 0.11313326 0.26882979
-0.14397205 0.11458153 0.27095744
-0.14325024 0.11444657 0.27063829
-0.14252976 0.11431162 0.27031916
-0.14186642 0.11422163 0.27010638
-0.14109266 0.11404169 0.26968086
-0.14015429 0.11372678 0.26893616
-0.13899808 0.11323193 0.26776597
-0.13784663 0.11273707 0.26659575
-0.13697392 0.11246715 0.26595744
-0.13637666 0.11242216 0.26585105
-0.13599727 0.11255712 0.2661702
-0.13572484 0.11278205 0.26670212
-0.13550419 0.11305198 0.26734042
-0.1352272 0.11327691 0.26787233
-0.13489456 0.11345687 0.26829788
-0.13440038 0.11350185 0.26840425
-0.13390577 0.11354683 0.26851064
-0.13341072 0.11359183 0.26861703
-0.13296786 0.1136818 0.26882979
-0.13247171 0.11372678 0.26893616
-0.13192295 0.11372678 0.26893616
-0.13132223 0.1136818 0.26882979
-0.13072194 0.11363681 0.2687234
-0.14441146 0.11504401 0.27074468
-0.14374596 0.1149536 0.27053192
-0.1429124 0.11472758 0.27000001
-0.1421932 0.11459197 0.26968086
-0.1414753 0.11445636 0.2693617
-0.14075869 0.11432074 0.26904255
-0.13982165 0.11400432 0.26829788
-0.13877718 0.11359747 0.26734042
-0.13773662 0.11319065 0.26638299
-0.13691911 0.11296462 0.26585105
-0.1363221 0.11291942 0.26574469
-0.13588856 0.11300983 0.26595744
-0.1355083 0.11314544 0.2662766
-0.13528851 0.11341666 0.2669149
-0.13501239 0.11364269 0.26744682
-0.13478759 0.1139139 0.26808509
-0.13440038 0.11404952 0.26840425
-0.13401186 0.11418512 0.2687234
-0.13351639 0.11423033 0.26882979
-0.13302046 0.11427553 0.26893616
-0.13247171 0.11427553 0.26893616
-0.13187078 0.11423033 0.26882979
-0.1312183 0.11413993 0.26861703
-0.14429797 0.11550561 0.27053192
-0.14346333 0.1152785 0.27000001
-0.14257455 0.11500598 0.2693617
-0.14168836 0.11473345 0.2687234
-0.14091656 0.11455177 0.26829788
-0.14014646 0.11437008 0.26787233
-0.13926724 0.11409757 0.26723406
-0.13844582 0.11387045 0.26670212
-0.1376266 0.11364334 0.2661702
-0.13691911 0.11350708 0.26585105
-0.13637666 0.11350708 0.26585105
-0.13588856 0.1135525 0.26595744
-0.13545415 0.11364334 0.2661702
-0.13512674 0.11382503 0.26659575
-0.13485128 0.11405214 0.26712766
-0.13457364 0.11427924 0.26765957
-0.13429384 0.11450634 0.26819149
-0.13395883 0.11468804 0.26861703
-0.13351639 0.11477888 0.26882979
-0.13307309 0.11486971 0.26904255
-0.13247171 0.11482429 0.26893616
-0.14412774 0.11592071 0.27021277
-0.14323722 0.11564688 0.26957446
-0.14218038 0.11523614 0.26861703
-0.14112745 0.11482539 0.26765957
-0.14019018 0.11450593 0.2669149
-0.13942291 0.11432337 0.26648936
-0.13871282 0.11418646 0.2661702
-0.1381145 0.11414082 0.26606384
-0.13751659 0.11409518 0.26595744
-0.13697392 0.11409518 0.26595744
-0.13643123 0.11409518 0.26595744
-0.13599727 0.11418646 0.2661702
-0.1355083 0.1142321 0.2662766
-0.13512674 0.11436901 0.26659575
-0.13474387 0.11450593 0.2669149
-0.13441318 0.11468848 0.26734042
-0.13413402 0.11491667 0.26787233
-0.13379967 0.11509922 0.26829788
-0.13346355 0.11528177 0.2687234
-0.14473607 0.11651792 0.27031916
-0.14401425 0.11638036 0.27000001
-0.14295459 0.11596766 0.26904255
-0.14184253 0.11550911 0.26797873
-0.14067872 0.1150047 0.26680851
-0.13963142 0.114592 0.26585105
-0.13886634 0.11440858 0.26542553
-0.13826929 0.11436272 0.26531914
-0.13783838 0.11445445 0.26553193
-0.13740659 0.11454615 0.26574469
-0.13697392 0.11463786 0.26595744
-0.13654038 0.11472957 0.2661702
-0.13610598 0.11482129 0.26638299
-0.13567072 0.11491299 0.26659575
-0.13523458 0.1150047 0.26680851
-0.13479756 0.11509641 0.26702127
-0.13446668 0.11527984 0.26744682
-0.13413402 0.11546325 0.26787233
-0.13374661 0.11560082 0.26819149
-0.14450821 0.11688521 0.26989362
-0.14373054 0.11670092 0.2694681
-0.14272849 0.11633234 0.26861703
-0.14156099 0.11582555 0.26744682
-0.14045435 0.11536483 0.26638299
-0.13940793 0.11495018 0.26542553
-0.13858804 0.11471982 0.26489362
-0.13810296 0.11476588 0.26499999
-0.13778315 0.11495018 0.26542553
-0.13740659 0.1150884 0.26574469
-0.13702871 0.11522661 0.26606384
-0.13664953 0.11536483 0.26638299
-0.13626905 0.11550304 0.26670212
-0.13588727 0.11564126 0.26702127
-0.13550419 0.11577947 0.26734042
-0.13506609 0.11587162 0.26755318
-0.13468061 0.11600983 0.26787233
-0.13429384 0.11614805 0.26819149
-0.13385271 0.1162402 0.26840425
-0.14439429 0.11734334 0.26968086
-0.14350356 0.1170656 0.26904255
-0.14250238 0.11669528 0.26819149
-0.14144836 0.11627869 0.26723406
-0.14039825 0.11586209 0.2662766
-0.13946381 0.11553806 0.26553193
-0.13869935 0.1153529 0.26510638
-0.13821386 0.11539919 0.26521277
-0.13783838 0.11553806 0.26553193
-0.13746157 0.11567692 0.26585105
-0.13702871 0.11576951 0.26606384
-0.1367041 0.11595466 0.26648936
-0.13643211 0.1161861 0.26702127
-0.13615794 0.11641755 0.26755318
-0.13588162 0.11664899 0.26808509
-0.13549572 0.11678787 0.26840425
-0.13505504 0.11688045 0.26861703
-0.13461347 0.11697303 0.26882979
-0.13417104 0.1170656 0.26904255
-0.14428039 0.11780061 0.2694681
-0.14333333 0.11747506 0.2687234
-0.14233279 0.117103 0.26787233
-0.14144836 0.11682397 0.26723406
-0.14051044 0.11649842 0.26648936
-0.13963142 0.11621938 0.26585105
-0.13897765 0.11612637 0.26563829
-0.13843562 0.11612637 0.26563829
-0.13800403 0.11621938 0.26585105
-0.13751659 0.11626589 0.26595744
-0.13713828 0.11640541 0.2662766
-0.13681324 0.11659143 0.26670212
-0.13659517 0.11687047 0.26734042
-0.13637452 0.11714952 0.26797873
-0.13615124 0.11742856 0.26861703
-0.13576424 0.11756806 0.26893616
-0.13532247 0.11766109 0.26914895
-0.13482654 0.11770759 0.26925531
-0.1343302 0.11775409 0.2693617
-0.14483023 0.11835045 0.2694681
-0.14399557 0.11811682 0.26893616
-0.14299287 0.11774303 0.26808509
-0.14205016 0.11741597 0.26734042
-0.14122313 0.11718236 0.26680851
-0.14045435 0.11699547 0.26638299
-0.13974318 0.11685529 0.26606384
-0.13914461 0.11680857 0.26595744
-0.13865739 0.11685529 0.26606384
-0.13816971 0.11690201 0.2661702
-0.13768162 0.11694874 0.2662766
-0.13719308 0.11699547 0.26638299
-0.13681324 0.11713563 0.26670212
-0.13659517 0.11741597 0.26734042
-0.13642864 0.11774303 0.26808509
-0.13620515 0.11802337 0.2687234
-0.13587166 0.11821028 0.26914895
-0.13537595 0.11825699 0.26925531
-0.13487981 0.11830372 0.2693617
-0.1343302 0.11830372 0.2693617
-0.13378057 0.11830372 0.2693617
-0.14331205 0.1181023 0.26765957
-0.1422552 0.11767983 0.26670212
-0.14142838 0.11744513 0.2661702
-0.14077266 0.11735125 0.26595744
-0.14017388 0.1173043 0.26585105
-0.13963142 0.1173043 0.26585105
-0.13920029 0.11739819 0.26606384
-0.13876827 0.11749207 0.2662766
-0.13833538 0.11758595 0.26648936
-0.13779162 0.11758595 0.26648936
-0.13730265 0.11763289 0.26659575
-0.13686782 0.11772677 0.26680851
-0.13654083 0.11791454 0.26723406
-0.13632037 0.11819617 0.26787233
-0.13604338 0.11843088 0.26840425
-0.13571054 0.11861864 0.26882979
-0.13526897 0.11871252 0.26904255
-0.13472 0.11871252 0.26904255
-0.13411798 0.11866558 0.26893616
-0.13356921 0.11866558 0.26893616
-0.14228676 0.11779961 0.26574469
-0.14140406 0.11751666 0.26510638
-0.14069355 0.11737519 0.26478723
-0.14020957 0.11742235 0.26489362
-0.13978124 0.11751666 0.26510638
-0.13940793 0.11765814 0.26542553
-0.13908896 0.11784676 0.26585105
-0.13876827 0.1180354 0.2662766
-0.13833538 0.11812971 0.26648936
-0.13784663 0.11817687 0.26659575
-0.13730265 0.11817687 0.26659575
-0.13681324 0.11822402 0.26670212
-0.13643211 0.1183655 0.26702127
-0.13610382 0.11855413 0.26744682
-0.13577378 0.11874276 0.26787233
-0.13544202 0.11893139 0.26829788
-0.13500154 0.11902571 0.26851064
-0.13445365 0.11902571 0.26851064
-0.13379967 0.11893139 0.26829788
-0.13314652 0.11883707 0.26808509
-0.14137541 0.11758386 0.26404256
-0.14077988 0.11753648 0.26393616
-0.14018482 0.11748911 0.2638298
-0.13975909 0.11758386 0.26404256
-0.13944468 0.11777335 0.26446807
-0.13912855 0.11796286 0.26489362
-0.13886634 0.11819973 0.26542553
-0.1385465 0.11838922 0.26585105
-0.13822494 0.11857872 0.2662766
-0.13779162 0.11867347 0.26648936
-0.13724786 0.11867347 0.26648936
-0.13675867 0.11872085 0.26659575
-0.13626905 0.11876822 0.26670212
-0.13583313 0.11886298 0.2669149
-0.13550419 0.11905247 0.26734042
-0.1351735 0.11924198 0.26776597
-0.13478759 0.11938409 0.26808509
-0.13424057 0.11938409 0.26808509
-0.1335344 0.11924198 0.26776597
-0.13282953 0.11909985 0.26744682
-0.14185698 0.11807503 0.26393616
-0.14114755 0.11793225 0.26361701
-0.14055292 0.11788467 0.26351064
-0.14001523 0.11788467 0.26351064
-0.13964649 0.11802745 0.2638298
-0.13927642 0.11817022 0.26414895
-0.13896093 0.11836059 0.26457447
-0.1386437 0.11855095 0.26499999
-0.13832474 0.11874132 0.26542553
-0.13800403 0.11893168 0.26585105
-0.1375716 0.11902688 0.26606384
-0.13708349 0.11907446 0.2661702
-0.13659495 0.11912205 0.2662766
-0.13610598 0.11916965 0.26638299
-0.13567072 0.11926483 0.26659575
-0.13528851 0.11940761 0.2669149
-0.13495868 0.11959797 0.26734042
-0.13462713 0.11978834 0.26776597
-0.13413402 0.11983593 0.26787233
-0.13342829 0.11969315 0.26755318
-0.14191417 0.1186614 0.26404256
-0.14120452 0.11851797 0.2637234
-0.14055292 0.11842236 0.26351064
-0.14007175 0.11847015 0.26361701
-0.13970278 0.11861359 0.26393616
-0.13927642 0.11870921 0.26414895
-0.13890505 0.11885263 0.26446807
-0.13853239 0.11899605 0.26478723
-0.13815841 0.11913949 0.26510638
-0.13778315 0.11928291 0.26542553
-0.13735157 0.11937853 0.26563829
-0.13691911 0.11947414 0.26585105
-0.13643123 0.11952195 0.26595744
-0.13594292 0.11956977 0.26606384
-0.1355083 0.11966538 0.2662766
-0.13518065 0.11985661 0.26670212
-0.13490498 0.12009567 0.26723406
-0.13457364 0.1202869 0.26765957
-0.13413402 0.12038251 0.26787233
-0.1335344 0.12033471 0.26776597
-0.14262512 0.11934425 0.26436171
-0.14185698 0.11915214 0.26393616
-0.14114755 0.11900806 0.26361701
-0.14060965 0.11900806 0.26361701
-0.14018482 0.11910412 0.2638298
-0.13981541 0.1192482 0.26414895
-0.13938861 0.11934425 0.26436171
-0.13896093 0.11944029 0.26457447
-0.13853239 0.11953635 0.26478723
-0.13810296 0.11963239 0.26499999
-0.13772792 0.11977647 0.26531914
-0.13724156 0.11982451 0.26542553
-0.13675477 0.11987253 0.26553193
-0.13626751 0.11992055 0.26563829
-0.13577986 0.11996859 0.26574469
-0.13540003 0.12011266 0.26606384
-0.13507281 0.12030476 0.26648936
-0.13485128 0.12059292 0.26712766
-0.13457364 0.12083305 0.26765957
-0.13418731 0.12097713 0.26797873
-0.14239554 0.11969069 0.26393616
-0.14174263 0.11959421 0.2637234
-0.1410906 0.11949772 0.26351064
-0.14060965 0.11954596 0.26361701
-0.14029786 0.11973894 0.26404256
-0.13992803 0.11988367 0.26436171
-0.13955688 0.1200284 0.26468086
-0.13907267 0.12007663 0.26478723
-0.13858804 0.12012488 0.26489362
-0.13815841 0.12022136 0.26510638
-0.13772792 0.12031785 0.26531914
-0.13729657 0.12041435 0.26553193
-0.13680954 0.12046258 0.26563829
-0.1363221 0.12051082 0.26574469
-0.13577986 0.12051082 0.26574469
-0.13534588 0.12060731 0.26595744
-0.1350189 0.12080029 0.26638299
-0.13474387 0.1210415 0.2669149
-0.13446668 0.12128271 0.26744682
-0.13408077 0.12142745 0.26776597
-0.14216597 0.12003541 0.26351064
-0.1415711 0.11998694 0.26340425
-0.14103363 0.11998694 0.26340425
-0.14060965 0.12008386 0.26361701
-0.14029786 0.12027771 0.26404256
-0.13998432 0.12047154 0.26446807
-0.13961296 0.12061692 0.26478723
-0.13912855 0.12066539 0.26489362
-0.13869935 0.1207623 0.26510638
-0.13826929 0.12085922 0.26531914
-0.13789359 0.1210046 0.26563829
-0.13751659 0.12114999 0.26595744
-0.13702871 0.12119845 0.26606384
-0.13648582 0.12119845 0.26606384
-0.13594292 0.12119845 0.26606384
-0.13545415 0.1212469 0.2661702
-0.13507281 0.12139229 0.26648936
-0.13469017 0.12153766 0.26680851
-0.1343597 0.12173151 0.26723406
-0.14264604 0.12052441 0.26340425
-0.14216597 0.1205731 0.26351064
-0.1416283 0.1205731 0.26351064
-0.1410906 0.1205731 0.26351064
-0.14060965 0.12062176 0.26361701
-0.14024132 0.12076779 0.26393616
-0.13992803 0.12096251 0.26436171
-0.13955688 0.12110855 0.26468086
-0.13912855 0.1212059 0.26489362
-0.13869935 0.12130325 0.26510638
-0.13832474 0.12144928 0.26542553
-0.13800403 0.12164398 0.26585105
-0.1376266 0.12179001 0.2661702
-0.13719308 0.12188738 0.26638299
-0.1367041 0.12193605 0.26648936
-0.13616033 0.12193605 0.26648936
-0.13561657 0.12193605 0.26648936
-0.13518065 0.12203339 0.26670212
-0.13474387 0.12213076 0.2669149
-0.13430621 0.12222812 0.26712766
-0.1424156 0.12086631 0.26297873
-0.14210857 0.12106188 0.26340425
-0.1416283 0.12111078 0.26351064
-0.1410906 0.12111078 0.26351064
-0.14060965 0.12115967 0.26361701
-0.14018482 0.12125746 0.2638298
-0.13981541 0.12140415 0.26414895
-0.13950078 0.12159972 0.26457447
-0.13912855 0.1217464 0.26489362
-0.13875502 0.12189309 0.26521277
-0.13832474 0.12199087 0.26542553
-0.13800403 0.12218644 0.26585105
-0.1376266 0.12233312 0.2661702
-0.13724786 0.12247981 0.26648936
-0.13681324 0.12257759 0.26670212
-0.13626905 0.12257759 0.26670212
-0.13577899 0.12262649 0.26680851
-0.13528851 0.1226754 0.2669149
-0.13479756 0.12272428 0.26702127
-0.13430621 0.12277318 0.26712766
-0.14248957 0.12101002 0.26212767
-0.14224276 0.12125558 0.26265958
-0.14205119 0.12155025 0.26329789
-0.14174263 0.12174668 0.2637234
-0.14126149 0.1217958 0.2638298
-0.14072315 0.1217958 0.2638298
-0.14018482 0.1217958 0.2638298
-0.13981541 0.12194314 0.26414895
-0.13950078 0.12213957 0.26457447
-0.13912855 0.12228691 0.26489362
-0.13869935 0.12238513 0.26510638
-0.13826929 0.12248335 0.26531914
-0.13783838 0.12258158 0.26553193
-0.13746157 0.1227289 0.26585105
-0.13708349 0.12287623 0.2661702
-0.1367041 0.12302357 0.26648936
-0.13626905 0.12312179 0.26670212
-0.13577899 0.1231709 0.26680851
-0.13528851 0.12322003 0.2669149
-0.13479756 0.12326913 0.26702127
-0.1423739 0.12144621 0.26191488
-0.14212754 0.12169287 0.26244682
-0.14205119 0.12208749 0.26329789
-0.14185698 0.12238345 0.26393616
-0.14143237 0.12248212 0.26414895
-0.14089338 0.12248212 0.26414895
-0.14029786 0.12243279 0.26404256
-0.1398717 0.12253144 0.26425532
-0.13950078 0.12267943 0.26457447
-0.13912855 0.12282742 0.26489362
-0.13869935 0.12292607 0.26510638
-0.13815841 0.12292607 0.26510638
-0.13767271 0.1229754 0.26521277
-0.13718654 0.12302472 0.26531914
-0.13686433 0.12322205 0.26574469
-0.13654038 0.12341935 0.2661702
-0.13616033 0.12356734 0.26648936
-0.13567072 0.12361667 0.26659575
-0.13512674 0.12361667 0.26659575
-0.13458276 0.12361667 0.26659575
-0.14319858 0.12222838 0.26244682
-0.14254738 0.12212928 0.26223403
-0.14224276 0.12232747 0.26265958
-0.14210857 0.12267428 0.26340425
-0.14202853 0.12307064 0.26425532
-0.1416602 0.12321928 0.26457447
-0.1410636 0.12316974 0.26446807
-0.14046745 0.1231202 0.26436171
-0.13998432 0.12316974 0.26446807
-0.13961296 0.12331837 0.26478723
-0.13918442 0.12341746 0.26499999
-0.13869935 0.12346701 0.26510638
-0.13810296 0.12341746 0.26499999
-0.13756225 0.12341746 0.26499999
-0.13707654 0.12346701 0.26510638
-0.13675477 0.1236652 0.26553193
-0.13643123 0.12386337 0.26595744
-0.13605163 0.12401201 0.2662766
-0.1355083 0.12401201 0.2662766
-0.13491105 0.12396246 0.2661702
-0.13431424 0.12391292 0.26606384
-0.14354683 0.12306246 0.2630851
-0.14277871 0.12286342 0.26265958
-0.14230037 0.12291317 0.26276594
-0.14216597 0.12326152 0.26351064
-0.14202853 0.12360985 0.26425532
-0.14171717 0.12380891 0.26468086
-0.14112034 0.12375914 0.26457447
-0.14052396 0.12370937 0.26446807
-0.14009695 0.12380891 0.26468086
-0.13966906 0.12390843 0.26489362
-0.13924029 0.12400795 0.26510638
-0.13875502 0.12405772 0.26521277
-0.13815841 0.12400795 0.26510638
-0.13756225 0.12395819 0.26499999
-0.13713154 0.12405772 0.26521277
-0.13675477 0.124207 0.26553193
-0.13637666 0.12435628 0.26585105
-0.13594292 0.12445582 0.26606384
-0.13540003 0.12445582 0.26606384
-0.13474928 0.12435628 0.26585105
-0.13409941 0.12425676 0.26563829
-0.14372097 0.12374922 0.26340425
-0.14289437 0.12349932 0.26287234
-0.14235799 0.12349932 0.26287234
-0.14216597 0.1237992 0.26351064
-0.14197135 0.12409908 0.26414895
-0.1416602 0.124299 0.26457447
-0.14112034 0.124299 0.26457447
-0.14052396 0.12424901 0.26446807
-0.14009695 0.12434898 0.26468086
-0.13972515 0.1244989 0.26499999
-0.13935204 0.12464885 0.26531914
-0.13881066 0.12464885 0.26531914
-0.13821386 0.12459888 0.26521277
-0.13767271 0.12459888 0.26521277
-0.13718654 0.12464885 0.26531914
-0.13680954 0.12479879 0.26563829
-0.13637666 0.12489874 0.26585105
-0.13588856 0.12494873 0.26595744
-0.13529174 0.12489874 0.26585105
-0.13464144 0.12479879 0.26563829
-0.14289437 0.1240357 0.26287234
-0.14235799 0.1240357 0.26287234
-0.14210857 0.12428669 0.26340425
-0.14191417 0.12458787 0.26404256
-0.14154628 0.12473846 0.26436171
-0.14100687 0.12473846 0.26436171
-0.14046745 0.12473846 0.26436171
-0.14009695 0.12488905 0.26468086
-0.13972515 0.12503962 0.26499999
-0.13935204 0.12519023 0.26531914
-0.13881066 0.12519023 0.26531914
-0.13826929 0.12519023 0.26531914
-0.13767271 0.12514003 0.26521277
-0.13724156 0.12524043 0.26542553
