# .PCD v0.7 - Point Cloud Data file format
VERSION 0.7
FIELDS x y z
SIZE 4 4 4
TYPE F F F
COUNT 1 1 1
WIDTH 1388
HEIGHT 1
VIEWPOINT 0 0 0 1 0 0 0
POINTS 1388
DATA ascii
-0.07101243 0.10738461 0.25893617
-0.070570953 0.10751697 0.25925532
-0.070156917 0.10769344 0.25968084
-0.069741145 0.10786992 0.26010638
-0.069295332 0.10800228 0.26042554
-0.068735845 0.10795815 0.26031914
-0.068176806 0.10791405 0.26021278
-0.067645848 0.10791405 0.26021278
-0.06714233 0.10795815 0.26031914
-0.066720046 0.10813463 0.26074469
-0.066269018 0.10826699 0.26106384
-0.06584347 0.10844346 0.26148936
-0.065416194 0.10861993 0.26191488
-0.064987183 0.10879641 0.26234043
-0.064530291 0.10892877 0.26265958
-0.064046182 0.109017 0.26287234
-0.063561201 0.10910524 0.2630851
-0.063049875 0.10914936 0.26319149
-0.06253811 0.10919348 0.26329789
-0.062050961 0.10928172 0.26351064
-0.06156294 0.10936995 0.2637234
-0.061098672 0.10950231 0.26404256
-0.060584307 0.10954643 0.26414895
-0.060093682 0.10963467 0.26436171
-0.059650119 0.10981113 0.26478723
-0.059252322 0.11007585 0.26542553
-0.058828387 0.11029644 0.26595744
-0.058355652 0.1104288 0.2662766
-0.057858516 0.11051703 0.26648936
-0.057337638 0.11056115 0.26659575
-0.056838982 0.11064939 0.26680851
-0.056339458 0.11073762 0.26702127
-0.055839073 0.11082587 0.26723406
-0.0553158 0.11086998 0.26734042
-0.054792099 0.1109141 0.26744682
-0.054289535 0.11100234 0.26765957
-0.053764746 0.11104646 0.26776597
-0.053239521 0.11109057 0.26787233
-0.052713864 0.11113469 0.26797873
-0.052208479 0.11122293 0.26819149
-0.051743217 0.11139941 0.26861703
-0.051276211 0.11157588 0.26904255
-0.050787415 0.11170824 0.2693617
-0.050277472 0.11179647 0.26957446
-0.049727414 0.11179647 0.26957446
-0.049177356 0.11179647 0.26957446
-0.048627298 0.11179647 0.26957446
-0.048115186 0.11188471 0.26978722
-0.04762096 0.11201707 0.27010638
-0.047125436 0.11214942 0.27042553
-0.046628606 0.11228178 0.27074468
-0.04611237 0.11237001 0.27095744
-0.045613151 0.11250237 0.27127659
-0.045112632 0.11263473 0.27159575
-0.044593357 0.11272296 0.27180851
-0.04402151 0.11267885 0.27170214
-0.043450087 0.11263473 0.27159575
-0.042895906 0.11263473 0.27159575
-0.042391479 0.11276709 0.2719149
-0.041902117 0.11294355 0.27234042
-0.041427169 0.11316414 0.27287233
-0.040918186 0.1132965 0.27319148
-0.040392179 0.11338474 0.27340424
-0.039849807 0.11342886 0.27351063
-0.039322283 0.11351709 0.27372339
-0.038793895 0.11360534 0.27393618
-0.038279478 0.11373769 0.27425531
-0.037763763 0.11387004 0.27457446
-0.037232336 0.11395829 0.27478725
-0.036671642 0.11395829 0.27478725
-0.036124926 0.1140024 0.27489361
-0.035591539 0.11409064 0.27510637
-0.035070833 0.11422299 0.27542552
-0.034562156 0.11439947 0.27585107
-0.034064848 0.11462007 0.27638298
-0.033565372 0.11484066 0.27691489
-0.03303837 0.11497302 0.27723405
-0.032485142 0.11501712 0.27734041
-0.031919241 0.11501712 0.27734041
-0.031353336 0.11501712 0.27734041
-0.030787433 0.11501712 0.27734041
-0.030221527 0.11501712 0.27734041
-0.029655624 0.11501712 0.27734041
-0.02910088 0.11506125 0.27744681
-0.028556641 0.11514948 0.27765957
-0.028043706 0.11537007 0.27819148
-0.027518095 0.11554655 0.27861702
-0.027001036 0.11576714 0.27914894
-0.026471734 0.11594361 0.27957445
-0.025950553 0.11616421 0.2801064
-0.02540792 0.11629656 0.28042552
-0.024854565 0.11638481 0.28063831
-0.024300342 0.11647304 0.28085107
-0.023736263 0.11651716 0.28095746
-0.023162978 0.11651716 0.28095746
-0.022589695 0.11651716 0.28095746
-0.022024745 0.11656128 0.28106382
-0.021475602 0.11669364 0.28138298
-0.020925157 0.11682599 0.28170213
-0.020358039 0.11687011 0.28180853
-0.019775549 0.11682599 0.28170213
-0.019200746 0.11682599 0.28170213
-0.01864001 0.11691423 0.28191489
-0.018057955 0.11687011 0.28180853
-0.017410336 0.11638481 0.28063831
-0.016722813 0.11559068 0.27872342
-0.01604927 0.11484066 0.27691489
-0.0154188 0.11435535 0.27574468
-0.014804569 0.11395829 0.27478725
-0.014188729 0.11351709 0.27372339
-0.013571936 0.1130318 0.27255321
-0.012980237 0.11272296 0.27180851
-0.012435347 0.11281119 0.27202126
-0.011922113 0.11320826 0.27297872
-0.011413829 0.11369357 0.27414894
-0.010888134 0.11404652 0.27500001
-0.01034698 0.11426712 0.27553192
-0.0097961007 0.11439947 0.27585107
-0.0092439177 0.11453183 0.27617022
-0.0086870892 0.11462007 0.27638298
-0.0081262654 0.11466417 0.27648935
-0.0075679179 0.11475242 0.27670214
-0.007011394 0.11488478 0.27702129
-0.006460994 0.11514948 0.27765957
-0.005910248 0.11545832 0.27840427
-0.0053523802 0.11567891 0.27893618
-0.0047923415 0.1158995 0.27946809
-0.0042269179 0.11603186 0.27978724
-0.0036629718 0.11625245 0.28031915
-0.0030980282 0.11651716 0.28095746
-0.0025304798 0.11678187 0.28159574
-0.0019618042 0.11713482 0.2824468
-0.0013896558 0.11748777 0.28329787
-0.00081159599 0.11748777 0.28329787
-0.00023300998 0.11722305 0.28265956
0.00034219492 0.11669364 0.28138298
0.00091115083 0.11603186 0.27978724
0.001474158 0.11541419 0.27829787
0.0020318679 0.11484066 0.27691489
0.0025909175 0.11457594 0.27627659
0.0031522212 0.11448771 0.27606383
0.0037183838 0.11457594 0.27627659
0.0042854147 0.11466417 0.27648935
0.0048514479 0.1147083 0.27659574
0.0054158322 0.1147083 0.27659574
0.0059756166 0.11462007 0.27638298
0.0065345326 0.11453183 0.27617022
0.0070980489 0.11453183 0.27617022
0.0076674675 0.11462007 0.27638298
0.0082440907 0.11479653 0.2768085
0.0088224513 0.11497302 0.27723405
0.0093989456 0.11510537 0.2775532
0.0099767428 0.11523773 0.27787235
0.010555841 0.11537007 0.27819148
0.011136242 0.11550243 0.27851063
0.011713477 0.11559068 0.27872342
0.012282203 0.11559068 0.27872342
0.012855832 0.11563478 0.27882978
0.013429898 0.11567891 0.27893618
0.01398838 0.11559068 0.27872342
0.014518212 0.11528184 0.27797872
0.015021913 0.11479653 0.2768085
0.015502868 0.11417888 0.27531916
0.015965329 0.11347298 0.27361703
0.016433693 0.11285532 0.27212766
0.016909264 0.1123259 0.27085108
0.017400198 0.11192883 0.26989362
0.017943831 0.11188471 0.26978722
0.018567251 0.1123259 0.27085108
0.019277619 0.11325239 0.27308512
0.020058919 0.11453183 0.27617022
0.020868696 0.1158995 0.27946809
0.021634806 0.11695835 0.28202128
0.02234431 0.11766425 0.28372341
0.022992 0.1180172 0.28457448
0.023616726 0.11823779 0.28510639
0.024243621 0.11845838 0.2856383
0.024872689 0.11867897 0.28617021
0.025503926 0.11889956 0.28670213
0.026108293 0.1189878 0.28691489
0.026693732 0.1189878 0.28691489
0.027279172 0.1189878 0.28691489
0.027885279 0.11907604 0.28712767
0.028523896 0.11929663 0.28765959
0.029175449 0.11956134 0.28829786
0.029807644 0.11973782 0.28872341
0.030430375 0.11987018 0.28904256
0.031042991 0.11995841 0.28925532
0.031633206 0.11995841 0.28925532
0.032235276 0.12000253 0.28936172
0.032825708 0.12000253 0.28936172
0.033428423 0.12004665 0.28946808
0.034044076 0.12013488 0.28968084
0.034622446 0.12009077 0.28957447
0.035083946 0.11964958 0.28851065
0.035264876 0.1182819 0.28521276
0.034539711 0.11038467 0.2661702
0.034549993 0.10870817 0.26212767
0.034785837 0.10778169 0.25989363
0.03517158 0.10734049 0.25882977
0.035597 0.10703167 0.2580851
0.036064055 0.1068552 0.25765958
0.036559585 0.10676695 0.2574468
0.037084896 0.10676695 0.2574468
0.037625749 0.10681108 0.25755319
0.038198557 0.10694343 0.25787234
0.038772661 0.10707579 0.2581915
0.039331876 0.10716403 0.25840425
0.039891962 0.10725226 0.25861701
0.040469542 0.10738461 0.25893617
0.041098956 0.10764933 0.25957447
0.041713912 0.10786992 0.26010638
0.042313762 0.10804639 0.2605319
0.042915352 0.10822287 0.26095745
0.043554101 0.10848758 0.26159576
0.044213381 0.10879641 0.26234043
0.044930138 0.1092376 0.26340425
0.045724694 0.10985526 0.26489362
0.046581063 0.11060527 0.26670212
0.047407228 0.11126705 0.26829788
0.048163839 0.11175236 0.2694681
0.048867535 0.11210531 0.27031916
0.0495358 0.11237001 0.27095744
0.051941536 0.091325454 0.22021277
0.05236556 0.091281332 0.22010638
0.05284021 0.091325454 0.22021277
0.053263798 0.091281332 0.22010638
0.053609077 0.091104858 0.21968085
0.05390026 0.090840153 0.21904255
0.054162446 0.090531319 0.21829787
0.054421593 0.090222493 0.2175532
-0.14169946 0.093237869 0.22372341
-0.14131013 0.0932822 0.22382979
-0.14098729 0.09337087 0.22404255
-0.14073034 0.093503878 0.2243617
-0.14040555 0.093592547 0.22457446
-0.14001362 0.093636893 0.22468086
-0.13955516 0.093636893 0.22468086
-0.13909671 0.093636893 0.22468086
-0.1387039 0.093681224 0.22478724
-0.13831064 0.093725555 0.22489361
-0.13791697 0.093769893 0.22499999
-0.13752286 0.093814231 0.22510639
-0.13719308 0.093902901 0.22531915
-0.13686244 0.093991578 0.22553192
-0.13653094 0.094080247 0.22574468
-0.13626269 0.094213255 0.22606383
-0.13592921 0.094301924 0.22627659
-0.13559489 0.094390593 0.22648937
-0.13519621 0.094434932 0.22659574
-0.13473386 0.094434932 0.22659574
-0.13427149 0.094434932 0.22659574
-0.13380913 0.094434932 0.22659574
-0.13347198 0.094523594 0.2268085
-0.13319634 0.094656609 0.22712766
-0.13304375 0.094878286 0.22765957
-0.13282703 0.095055625 0.2280851
-0.13248511 0.095144302 0.22829787
-0.13208078 0.095188633 0.22840425
-0.13161473 0.095188633 0.22840425
-0.13127086 0.095277309 0.22861703
-0.1309261 0.095365979 0.22882979
-0.13064113 0.095498987 0.22914894
-0.13035487 0.095631994 0.22946809
-0.13000707 0.095720664 0.22968085
-0.12965842 0.095809333 0.22989361
-0.12924911 0.095853671 0.23
-0.12889893 0.095942341 0.23021276
-0.12854789 0.096031018 0.23042554
-0.1282551 0.096164018 0.23074467
-0.12796101 0.096297026 0.23106383
-0.12754823 0.096341357 0.23117021
-0.12713502 0.096385702 0.2312766
-0.12672137 0.096430033 0.23138298
-0.12630729 0.096474372 0.23148936
-0.1259506 0.096563041 0.23170213
-0.12559304 0.096651711 0.23191489
-0.12523462 0.096740387 0.23212767
-0.12481815 0.096784718 0.23223405
-0.12440124 0.096829057 0.23234043
-0.12392715 0.096829057 0.23234043
-0.1235096 0.096873388 0.2324468
-0.12320422 0.097006395 0.23276596
-0.12289756 0.097139403 0.23308511
-0.12258957 0.097272411 0.23340425
-0.12228029 0.097405419 0.2337234
-0.12196971 0.097538427 0.23404256
-0.1216026 0.097627096 0.23425531
-0.12117963 0.097671434 0.23436171
-0.12070142 0.097671434 0.23436171
-0.12027778 0.097715765 0.23446809
-0.11985371 0.097760104 0.23457447
-0.11948334 0.09784878 0.23478724
-0.11921996 0.098026119 0.23521277
-0.11890112 0.098159119 0.23553191
-0.11858099 0.098292127 0.23585106
-0.11825956 0.098425142 0.23617022
-0.11793681 0.098558143 0.23648936
-0.11761277 0.098691151 0.23680851
-0.11728743 0.098824158 0.23712766
-0.11685598 0.098868497 0.23723404
-0.11631973 0.098824158 0.23712766
-0.11578391 0.098779827 0.23702128
-0.11524852 0.098735482 0.23691489
-0.11481664 0.098779827 0.23702128
-0.11438432 0.098824158 0.23712766
-0.11395157 0.098868497 0.23723404
-0.11362015 0.099001504 0.23755319
-0.11323676 0.099090174 0.23776595
-0.11280206 0.099134512 0.23787235
-0.11231669 0.099134512 0.23787235
-0.11188133 0.099178843 0.23797873
-0.11149533 0.099267513 0.23819149
-0.11115805 0.09940052 0.23851064
-0.11086883 0.099577866 0.23893617
-0.11057787 0.099755205 0.2393617
-0.11028518 0.099932551 0.23978724
-0.10994204 0.10006556 0.24010639
-0.10945211 0.10006556 0.24010639
-0.10896218 0.10006556 0.24010639
-0.10842419 0.10002122 0.23999999
-0.10798232 0.10006556 0.24010639
-0.10758764 0.10015423 0.24031915
-0.10714468 0.10019856 0.24042553
-0.10670131 0.10024291 0.24053192
-0.10635143 0.10037591 0.24085106
-0.10604701 0.10055324 0.24127659
-0.10569432 0.10068625 0.24159575
-0.10524767 0.10073059 0.24170212
-0.10480059 0.10077492 0.2418085
-0.10435309 0.10081927 0.2419149
-0.10395081 0.10090793 0.24212766
-0.10359313 0.10104094 0.24244681
-0.10318889 0.10112961 0.24265957
-0.10282882 0.10126262 0.24297872
-0.10246744 0.10139563 0.24329787
-0.10214935 0.10157297 0.24372341
-0.10174078 0.10166164 0.24393617
-0.10128719 0.10170598 0.24404256
-0.10074529 0.10166164 0.24393617
-0.10029127 0.10170598 0.24404256
-0.099923812 0.10183898 0.2443617
-0.099641621 0.10206066 0.24489361
-0.09935727 0.10228234 0.24542554
-0.099027887 0.10245968 0.24585107
-0.098611504 0.10254835 0.24606383
-0.098151833 0.10259268 0.24617021
-0.097691737 0.10263703 0.2462766
-0.097231194 0.10268136 0.24638298
-0.096811987 0.10277003 0.24659574
-0.096391916 0.10285871 0.24680851
-0.095970973 0.10294737 0.24702127
-0.095466934 0.10294737 0.24702127
-0.094962895 0.10294737 0.24702127
-0.094499536 0.10299171 0.24712765
-0.094076209 0.10308038 0.24734043
-0.093732506 0.10325772 0.24776596
-0.093347035 0.10339073 0.24808511
-0.092920445 0.1034794 0.24829787
-0.092334613 0.10339073 0.24808511
-0.091670893 0.10321339 0.24765958
-0.09108723 0.10312472 0.24744681
-0.090621263 0.10316905 0.24755318
-0.090271048 0.10334639 0.24797872
-0.089957602 0.10356808 0.24851064
-0.089641988 0.10378975 0.24904256
-0.089248046 0.10392276 0.24936171
-0.088852808 0.10405576 0.24968085
-0.088418625 0.10414444 0.24989362
-0.087983578 0.10423311 0.25010639
-0.087547652 0.10432178 0.25031915
-0.087184839 0.10449912 0.25074467
-0.086857066 0.10472079 0.25127658
-0.086490571 0.10489814 0.25170213
-0.086049654 0.10498681 0.25191489
-0.085571758 0.10503116 0.25202128
-0.085093416 0.10507548 0.25212765
-0.084650338 0.10516416 0.25234044
-0.084277324 0.10534149 0.25276595
-0.083867326 0.10547451 0.25308511
-0.083420984 0.10556317 0.25329787
-0.082904138 0.10556317 0.25329787
-0.082352698 0.10551885 0.2531915
-0.081836067 0.10551885 0.2531915
-0.081353597 0.10556317 0.25329787
-0.080904655 0.10565184 0.25351062
-0.080488577 0.10578485 0.25382978
-0.080004163 0.10582919 0.25393617
-0.079552613 0.10591786 0.25414893
-0.07903403 0.10591786 0.25414893
-0.078515448 0.10591786 0.25414893
-0.077996865 0.10591786 0.25414893
-0.077478282 0.10591786 0.25414893
-0.076991916 0.1059622 0.25425532
-0.07653711 0.10605087 0.25446808
-0.076113217 0.10618388 0.25478724
-0.075688027 0.10631689 0.25510639
-0.075198829 0.10636121 0.25521275
-0.074709207 0.10640556 0.25531915
-0.07418824 0.10640556 0.25531915
-0.073759355 0.10653856 0.2556383
-0.073390119 0.10676024 0.25617021
-0.073018715 0.10698192 0.25670213
-0.072615102 0.10715926 0.25712767
-0.072150089 0.10724793 0.25734043
-0.071654603 0.10729226 0.2574468
-0.071158685 0.1073366 0.25755319
-0.070691504 0.10742527 0.25776595
-0.070252419 0.10755828 0.2580851
-0.06981203 0.10769129 0.25840425
-0.06939885 0.10786863 0.25882977
-0.06892734 0.1079573 0.25904256
-0.068370678 0.10791297 0.25893617
-0.067842327 0.10791297 0.25893617
-0.067313977 0.10791297 0.25893617
-0.0668405 0.10800163 0.25914893
-0.066393383 0.10813464 0.25946808
-0.065944962 0.10826765 0.25978723
-0.065468445 0.10835632 0.25999999
-0.064991072 0.108445 0.26021278
-0.064539172 0.108578 0.2605319
-0.064085975 0.108711 0.26085106
-0.063631475 0.10884401 0.26117021
-0.063149966 0.10893268 0.26138297
-0.062667601 0.10902137 0.26159576
-0.062184356 0.10911003 0.26180851
-0.061700244 0.1091987 0.26202127
-0.061215267 0.10928737 0.26223403
-0.060729425 0.10937605 0.26244682
-0.060242709 0.10946471 0.26265958
-0.059803486 0.10964205 0.2630851
-0.059362534 0.1098194 0.26351064
-0.058967344 0.11008542 0.26414895
-0.058546014 0.1103071 0.26468086
-0.058099195 0.11048443 0.26510638
-0.057581354 0.11052877 0.26521277
-0.057040196 0.11052877 0.26521277
-0.056521699 0.1105731 0.26531914
-0.05600277 0.11061744 0.26542553
-0.055483408 0.11066178 0.26553193
-0.054985624 0.11075045 0.26574469
-0.054486968 0.11083912 0.26595744
-0.053987443 0.11092778 0.2661702
-0.053465698 0.11097213 0.2662766
-0.052943513 0.11101647 0.26638299
-0.052441821 0.11110514 0.26659575
-0.051959969 0.11123814 0.2669149
-0.051497307 0.11141548 0.26734042
-0.051032908 0.11159283 0.26776597
-0.050526656 0.1116815 0.26797873
-0.049999695 0.11172583 0.26808509
-0.049433053 0.1116815 0.26797873
-0.048886251 0.1116815 0.26797873
-0.048358638 0.11172583 0.26808509
-0.047830593 0.11177017 0.26819149
-0.047339626 0.11190318 0.26851064
-0.046865892 0.11208051 0.26893616
-0.046390425 0.11225786 0.2693617
-0.045895118 0.11239087 0.26968086
-0.045416389 0.11256821 0.27010638
-0.044900592 0.11265688 0.27031916
-0.044383921 0.11274555 0.27053192
-0.043797437 0.11265688 0.27031916
-0.043228839 0.11261255 0.27021277
-0.042660676 0.11256821 0.27010638
-0.042142704 0.11265688 0.27031916
-0.04164023 0.11278988 0.27063829
-0.041168753 0.11301156 0.2711702
-0.040663242 0.11314457 0.27148935
-0.040156428 0.11327758 0.27180851
-0.039632812 0.11336625 0.27202126
-0.039108329 0.11345492 0.27223405
-0.038598042 0.11358794 0.27255321
-0.038101297 0.11376527 0.27297872
-0.03760282 0.11394261 0.27340424
-0.037073776 0.11403129 0.27361703
-0.036529668 0.11407562 0.27372339
-0.035971142 0.11407562 0.27372339
-0.035426382 0.11411995 0.27382979
-0.034894735 0.11420862 0.27404255
-0.034388877 0.11438598 0.27446809
-0.033881281 0.11456331 0.27489361
-0.033359054 0.11469632 0.27521276
-0.032835528 0.11482933 0.27553192
-0.032298233 0.11491799 0.27574468
-0.031747829 0.11496234 0.27585107
-0.031184966 0.11496234 0.27585107
-0.030633908 0.11500666 0.27595744
-0.030070826 0.11500666 0.27595744
-0.029507745 0.11500666 0.27595744
-0.028955823 0.11505101 0.27606383
-0.028425347 0.11518402 0.27638298
-0.027904293 0.11536135 0.2768085
-0.027381504 0.1155387 0.27723405
-0.026867267 0.11576038 0.27776596
-0.026330713 0.11589339 0.27808511
-0.025783002 0.11598206 0.27829787
-0.025234422 0.11607073 0.27851063
-0.024694394 0.11620373 0.27882978
-0.024162272 0.11638108 0.27925533
-0.02362841 0.11655842 0.27968085
-0.023075271 0.11664709 0.27989361
-0.022495605 0.11660276 0.27978724
-0.021916373 0.11655842 0.27968085
-0.021345692 0.11655842 0.27968085
-0.020775013 0.11655842 0.27968085
-0.020181278 0.11642541 0.2793617
-0.019551504 0.11607073 0.27851063
-0.018917955 0.11567171 0.2775532
-0.018316448 0.11545003 0.27702129
-0.017113343 0.11496234 0.27585107
-0.016473886 0.1144303 0.27457446
-0.015839638 0.11389828 0.27329788
-0.015240342 0.11358794 0.27255321
-0.014667012 0.11345492 0.27223405
-0.014083955 0.11323325 0.27170214
-0.013503068 0.11301156 0.2711702
-0.012939594 0.11292289 0.27095744
-0.012406168 0.11310024 0.27138299
-0.01188959 0.11345492 0.27223405
-0.011378396 0.11389828 0.27329788
-0.010854437 0.11425296 0.27414894
-0.010315021 0.11447464 0.27468085
-0.0097696539 0.11465198 0.27510637
-0.0092154313 0.11474066 0.27531916
-0.0086603388 0.11482933 0.27553192
-0.0081043784 0.11491799 0.27574468
-0.0075475499 0.11500666 0.27595744
-0.0069979308 0.11522834 0.27648935
-0.0064510922 0.1155387 0.27723405
-0.0059012142 0.11584905 0.27797872
-0.0053462558 0.11611506 0.27861702
-0.0047868686 0.11633674 0.27914894
-0.0042220959 0.11646975 0.27946809
-0.0036574111 0.11664709 0.27989361
-0.0030945092 0.11695744 0.28063831
0.0025859291 0.11491799 0.27574468
0.0031473625 0.11487367 0.27563831
0.0037097933 0.11487367 0.27563831
0.0042771702 0.11500666 0.27595744
0.004840252 0.11500666 0.27595744
0.005399168 0.11491799 0.27574468
0.0059526158 0.11474066 0.27531916
0.006506844 0.11460765 0.27500001
0.0070625041 0.11451899 0.27478725
0.0076291007 0.11460765 0.27500001
0.008202902 0.11478499 0.27542552
0.0087818252 0.11500666 0.27595744
0.0093629202 0.11522834 0.27648935
0.0099385455 0.11536135 0.2768085
0.010515475 0.11549436 0.27712765
0.011080944 0.11549436 0.27712765
0.011650885 0.1155387 0.27723405
0.012221259 0.11558302 0.27734041
0.012792069 0.11562737 0.27744681
0.01335819 0.11562737 0.27744681
0.013913632 0.1155387 0.27723405
0.014429313 0.11513967 0.27627659
0.014912223 0.11451899 0.27478725
0.015377072 0.11380962 0.27308512
0.01584118 0.11314457 0.27148935
0.016330902 0.11270121 0.27042553
0.01684949 0.11247954 0.26989362
0.017400198 0.11247954 0.26989362
0.017993361 0.11274555 0.27053192
0.018640177 0.11332192 0.2719149
0.019360226 0.11429729 0.27425531
0.020113006 0.11540569 0.27691489
0.020868696 0.11646975 0.27946809
0.021594001 0.11731213 0.28148937
0.022260528 0.11779981 0.28265956
0.022897452 0.11811016 0.28340426
0.02351979 0.11833184 0.28393617
0.024135269 0.11850918 0.28436169
0.024752486 0.11868653 0.28478724
0.025380902 0.1189082 0.28531915
0.025992127 0.11904121 0.2856383
0.026584858 0.11908554 0.28574467
0.027167911 0.11908554 0.28574467
0.027771629 0.11917423 0.28595746
0.028386762 0.11930723 0.28627661
0.02902473 0.11952891 0.28680852
0.029664867 0.11975059 0.28734043
0.030284775 0.1198836 0.28765959
0.030894568 0.11997227 0.28787234
0.031493593 0.12001659 0.28797871
0.032093059 0.12006094 0.2880851
0.032692954 0.12010527 0.2881915
0.03330557 0.12019394 0.28840426
0.033906553 0.12023828 0.28851065
0.034482528 0.12019394 0.28840426
0.034954578 0.11979491 0.2874468
0.035199109 0.11864219 0.28468084
0.034676187 0.10964205 0.2630851
0.034857031 0.10853367 0.26042554
0.035214946 0.10800163 0.25914893
0.035655696 0.10773563 0.25851065
0.036138505 0.10760262 0.2581915
0.036635123 0.10751395 0.25797874
0.037161522 0.10751395 0.25797874
0.037703458 0.10755828 0.2580851
0.038261585 0.10764695 0.25829786
0.038836561 0.10777996 0.25861701
0.039412841 0.10791297 0.25893617
0.040023237 0.10813464 0.25946808
0.040652435 0.10840066 0.26010638
0.041301079 0.108711 0.26085106
0.041969825 0.10906569 0.26170212
0.042642042 0.10942037 0.26255319
0.043335233 0.1098194 0.26351064
0.044050038 0.11026276 0.26457447
0.044822972 0.11083912 0.26595744
0.045655988 0.11154849 0.26765957
0.067849062 0.12879506 0.30904254
0.069233991 0.1302138 0.3124468
0.070490077 0.13136652 0.31521276
0.071277298 0.13163254 0.31585106
0.052789155 0.091686122 0.22
0.053186569 0.091597453 0.21978724
0.053505234 0.091375768 0.21925531
0.053821728 0.091154091 0.2187234
0.054162446 0.090976745 0.21829787
0.054501425 0.090799406 0.21787234
0.054865502 0.090666398 0.2175532
0.055579875 0.091109753 0.21861702
-0.14122781 0.0933825 0.22297873
-0.14083999 0.093427047 0.22308511
-0.14051868 0.093516156 0.22329788
-0.1401965 0.093605258 0.22351064
-0.13987346 0.093694367 0.22372341
-0.13954955 0.093783475 0.22393617
-0.13909262 0.093783475 0.22393617
-0.13863568 0.093783475 0.22393617
-0.13817875 0.093783475 0.22393617
-0.13778724 0.093828022 0.22404255
-0.13739529 0.093872577 0.22414893
-0.13706791 0.093961686 0.2243617
-0.13673966 0.094050787 0.22457446
-0.1364751 0.094184443 0.22489361
-0.13620923 0.094318107 0.22521277
-0.13587794 0.094407208 0.22542553
-0.13554578 0.094496317 0.2256383
-0.13521275 0.094585419 0.22585106
-0.13481538 0.094629973 0.22595745
-0.13435432 0.094629973 0.22595745
-0.13389327 0.094629973 0.22595745
-0.13343221 0.094629973 0.22595745
-0.13303375 0.094674528 0.22606383
-0.13275965 0.094808191 0.22638299
-0.13254638 0.094986394 0.2268085
-0.13226946 0.09512005 0.22712766
-0.13199121 0.095253713 0.22744681
-0.13158864 0.09529826 0.22755319
-0.13112432 0.09529826 0.22755319
-0.13078217 0.095387369 0.22776596
-0.13043916 0.095476478 0.22797872
-0.13021658 0.095654689 0.22840425
-0.12993184 0.095788345 0.22872341
-0.12964578 0.095922008 0.22904256
-0.12929842 0.09601111 0.22925532
-0.12889041 0.096055657 0.2293617
-0.12848198 0.096100219 0.22946809
-0.12813245 0.09618932 0.22968085
-0.12778205 0.096278422 0.22989361
-0.1274308 0.096367531 0.23010638
-0.12701996 0.096412085 0.23021276
-0.1266087 0.096456632 0.23031914
-0.12625527 0.096545741 0.23053192
-0.12590097 0.096634842 0.23074467
-0.12548797 0.096679404 0.23085107
-0.12513214 0.096768506 0.23106383
-0.12477546 0.096857615 0.2312766
-0.1244179 0.096946716 0.23148936
-0.12400252 0.096991263 0.23159574
-0.12352995 0.096991263 0.23159574
-0.12305739 0.096991263 0.23159574
-0.12269745 0.097080372 0.23180851
-0.12239273 0.097214036 0.23212767
-0.1220867 0.097347692 0.2324468
-0.12183503 0.097525902 0.23287234
-0.12152619 0.097659558 0.23319149
-0.12116081 0.09774866 0.23340425
-0.12073957 0.097793221 0.23351064
-0.1202631 0.097793221 0.23351064
-0.11978663 0.097793221 0.23351064
-0.11936451 0.097837768 0.23361702
-0.1189961 0.09792687 0.23382978
-0.11868074 0.098060533 0.23414893
-0.11841778 0.098238744 0.23457447
-0.11804612 0.098327853 0.23478724
-0.11772685 0.098461509 0.23510638
-0.11740629 0.098595165 0.23542553
-0.11713725 0.098773375 0.23585106
-0.11681386 0.098907039 0.23617022
-0.11633196 0.098907039 0.23617022
-0.11585007 0.098907039 0.23617022
-0.11526423 0.09881793 0.23595744
-0.11478277 0.09881793 0.23595744
-0.11430131 0.09881793 0.23595744
-0.11392248 0.098907039 0.23617022
-0.11354278 0.09899614 0.23638298
-0.11316221 0.099085249 0.23659575
-0.11278077 0.099174351 0.23680851
-0.11234802 0.099218905 0.23691489
-0.1118646 0.099218905 0.23691489
-0.1114312 0.099263459 0.23702128
-0.11114676 0.09944167 0.23744681
-0.11086058 0.09961988 0.23787235
-0.11057266 0.099798091 0.23829788
-0.11028299 0.099976294 0.2387234
-0.1099916 0.10015451 0.23914893
-0.10960106 0.10024362 0.2393617
-0.10916114 0.10028817 0.23946808
-0.10857596 0.10019907 0.23925532
-0.10808777 0.10019907 0.23925532
-0.10759958 0.10019907 0.23925532
-0.10715901 0.10024362 0.2393617
-0.106718 0.10028817 0.23946808
-0.10627657 0.10033272 0.23957446
-0.10592865 0.10046638 0.23989362
-0.10557944 0.10060004 0.24021277
-0.10518236 0.10068914 0.24042553
-0.10478444 0.10077825 0.2406383
-0.10433953 0.1008228 0.24074468
-0.10394008 0.10091191 0.24095745
-0.10353976 0.10100101 0.24117021
-0.10313857 0.10109012 0.24138297
-0.10278175 0.10122377 0.24170212
-0.10242363 0.10135744 0.24202128
-0.10206421 0.10149109 0.24234043
-0.10170347 0.10162475 0.24265957
-0.10129708 0.10171386 0.24287234
-0.10084566 0.10175841 0.24297872
-0.1003938 0.10180296 0.2430851
-0.099941522 0.10184751 0.2431915
-0.099575795 0.10198117 0.24351063
-0.09925206 0.10215938 0.24393617
-0.098926589 0.10233759 0.2443617
-0.098513685 0.1024267 0.24457447
-0.09805727 0.10247125 0.24468085
-0.097600423 0.1025158 0.24478723
-0.097185344 0.10260491 0.245
-0.096769392 0.10269401 0.24521276
-0.096352577 0.10278312 0.24542554
-0.095976435 0.10291678 0.24574468
-0.095557667 0.10300589 0.24595745
-0.095096909 0.10305044 0.24606383
-0.094594821 0.10305044 0.24606383
-0.094092742 0.10305044 0.24606383
-0.093631119 0.10309499 0.24617021
-0.093249552 0.10322865 0.24648936
-0.092866689 0.10336231 0.24680851
-0.092442706 0.10345141 0.24702127
-0.091899067 0.10340686 0.24691489
-0.091277115 0.1032732 0.24659574
-0.090695627 0.1031841 0.24638298
-0.090231836 0.10322865 0.24648936
-0.089845061 0.10336231 0.24680851
-0.089495495 0.10354052 0.24723405
-0.089144185 0.10371873 0.24765958
-0.088753067 0.10385238 0.24797872
-0.088322796 0.10394149 0.24819149
-0.087929294 0.10407516 0.24851064
-0.08753448 0.1042088 0.24882978
-0.087138377 0.10434247 0.24914894
-0.086777955 0.10452068 0.24957447
-0.086415797 0.10469889 0.25
-0.086051896 0.10487709 0.25042552
-0.08564993 0.10501076 0.25074467
-0.085174419 0.10505531 0.25085106
-0.084698476 0.10509986 0.25095746
-0.084293455 0.10523351 0.25127658
-0.083922625 0.10541173 0.25170213
-0.083550043 0.10558994 0.25212765
-0.083105661 0.10567905 0.25234044
-0.082590774 0.10567905 0.25234044
-0.082041271 0.1056345 0.25223404
-0.0815266 0.1056345 0.25223404
-0.081011921 0.1056345 0.25223404
-0.080565147 0.1057236 0.2524468
-0.080151238 0.10585726 0.25276595
-0.079702511 0.10594636 0.25297871
-0.079219617 0.10599092 0.25308511
-0.07873629 0.10603548 0.2531915
-0.078186795 0.10599092 0.25308511
-0.07767038 0.10599092 0.25308511
-0.077121541 0.10594636 0.25297871
-0.076637559 0.10599092 0.25308511
-0.076185144 0.10608002 0.25329787
-0.07579542 0.10625824 0.25372341
-0.075372398 0.1063919 0.25404257
-0.074885368 0.10643644 0.25414893
-0.074397922 0.106481 0.25425532
-0.073910028 0.10652555 0.25436169
-0.073452406 0.10661466 0.25457448
-0.073054865 0.10679287 0.255
-0.072685845 0.10701562 0.25553191
-0.072284617 0.10719384 0.25595745
-0.071851827 0.10732751 0.25627661
-0.071388118 0.10741661 0.25648937
-0.070894152 0.10746115 0.25659573
-0.070370577 0.10746115 0.25659573
-0.069904923 0.10755026 0.25680852
-0.06943839 0.10763936 0.25702128
-0.068999521 0.10777303 0.25734043
-0.068531036 0.10786213 0.25755319
-0.068033606 0.10790669 0.25765958
-0.067507856 0.10790669 0.25765958
-0.067037418 0.10799579 0.25787234
-0.066566117 0.10808489 0.2580851
-0.066093944 0.108174 0.25829786
-0.065593906 0.10821855 0.25840425
-0.065093428 0.10826311 0.25851065
-0.064619087 0.10835221 0.25872341
-0.064143874 0.10844132 0.25893617
-0.063693933 0.10857497 0.25925532
-0.063268602 0.10875318 0.25968084
-0.062815845 0.10888684 0.25999999
-0.062361777 0.1090205 0.26031914
-0.061881136 0.1091096 0.2605319
-0.061399639 0.10919872 0.26074469
-0.060892425 0.10924326 0.26085106
-0.060384788 0.10928782 0.26095745
-0.059925511 0.10942148 0.2612766
-0.059464935 0.10955514 0.26159576
-0.059050985 0.10977791 0.26212767
-0.058658607 0.11004521 0.26276594
-0.058216572 0.11022343 0.26319149
-0.057749484 0.11035708 0.26351064
-0.057234891 0.11040163 0.26361701
-0.056696989 0.11040163 0.26361701
-0.056181751 0.11044618 0.2637234
-0.055643633 0.11044618 0.2637234
-0.055127747 0.11049075 0.2638298
-0.054633431 0.11057985 0.26404256
-0.054138251 0.11066895 0.26425532
-0.053642202 0.11075805 0.26446807
-0.053145289 0.11084717 0.26468086
-0.052626356 0.11089171 0.26478723
-0.052148845 0.11102537 0.26510638
-0.051690746 0.11120359 0.26553193
-0.0512514 0.11142635 0.26606384
-0.050769333 0.11156001 0.26638299
-0.05024584 0.11160456 0.26648936
-0.049702078 0.11160456 0.26648936
-0.049138695 0.11156001 0.26638299
-0.048595149 0.11156001 0.26638299
-0.048051603 0.11156001 0.26638299
-0.047546003 0.11164912 0.26659575
-0.047058292 0.11178277 0.2669149
-0.046587814 0.11196098 0.26734042
-0.046133921 0.11218374 0.26787233
-0.045659758 0.11236196 0.26829788
-0.045183852 0.11254016 0.2687234
-0.044670872 0.11262926 0.26893616
-0.044122115 0.11262926 0.26893616
-0.043556128 0.11258473 0.26882979
-0.042990569 0.11254016 0.2687234
-0.042442247 0.11254016 0.2687234
-0.041910511 0.11258473 0.26882979
-0.041411079 0.11271838 0.26914895
-0.04092649 0.11289658 0.26957446
-0.040424235 0.11303025 0.26989362
-0.039920676 0.1131639 0.27021277
-0.039415818 0.11329757 0.27053192
-0.038909655 0.11343122 0.27085108
-0.038402185 0.11356487 0.2711702
-0.037908267 0.11374309 0.27159575
-0.03741261 0.11392129 0.27202126
-0.03688639 0.11401041 0.27223405
-0.036359299 0.11409951 0.27244681
-0.035803381 0.11409951 0.27244681
-0.035261229 0.11414407 0.27255321
-0.034718636 0.11418862 0.27265957
-0.034188941 0.11427772 0.27287233
-0.033671491 0.11441138 0.27319148
-0.033165634 0.11458959 0.27361703
-0.03264536 0.11472326 0.27393618
-0.032111324 0.11481236 0.27414894
-0.031576417 0.11490146 0.2743617
-0.031040644 0.11499056 0.27457446
-0.030492196 0.11503512 0.27468085
-0.029943312 0.11507968 0.27478725
-0.029382618 0.11507968 0.27478725
-0.02883308 0.11512423 0.27489361
-0.028294051 0.11521333 0.27510637
-0.027764877 0.11534698 0.27542552
-0.027244912 0.1155252 0.27585107
-0.026723206 0.1157034 0.27627659
-0.026179617 0.11579251 0.27648935
-0.02561545 0.11579251 0.27648935
-0.025051283 0.11579251 0.27648935
-0.024505962 0.11588162 0.27670214
-0.023996586 0.11614893 0.27734041
-0.023484608 0.11641625 0.27797872
-0.022943715 0.11654991 0.27829787
-0.022367302 0.11650535 0.27819148
-0.021766318 0.11632715 0.27776596
-0.021167066 0.11614893 0.27734041
-0.020577459 0.11601529 0.27702129
-0.019950723 0.11565886 0.27617022
-0.019290123 0.11507968 0.27478725
-0.01860616 0.11432227 0.27297872
-0.017978817 0.11387675 0.2719149
-0.017403532 0.11374309 0.27159575
-0.016842751 0.11369853 0.27148935
-0.016263254 0.11352033 0.27106383
-0.015673164 0.11325301 0.27042553
-0.015109473 0.1131639 0.27021277
-0.01455238 0.11311935 0.27010638
-0.013995724 0.1130748 0.27000001
-0.0134395 0.11303025 0.26989362
-0.012898951 0.11311935 0.27010638
-0.012376988 0.11338667 0.27074468
-0.011866359 0.11378765 0.27170214
-0.011351821 0.11418862 0.27265957
-0.010824952 0.11450048 0.27340424
-0.01029105 0.1147678 0.27404255
-0.0097469874 0.11494602 0.27446809
-0.0091976272 0.11507968 0.27478725
-0.0086436206 0.11516878 0.27500001
-0.0080918726 0.11530244 0.27531916
-0.007538822 0.1154361 0.27563831
-0.0069925459 0.1157034 0.27627659
-0.0064461413 0.11601529 0.27702129
-0.0058966973 0.11632715 0.27776596
-0.0053442144 0.11663901 0.27851063
-0.0047832201 0.11681723 0.27893618
-0.0042188819 0.11695089 0.27925533
0.0037069293 0.11534698 0.27542552
0.0042689261 0.11534698 0.27542552
0.004829057 0.11530244 0.27531916
0.0053825038 0.11512423 0.27489361
0.0059319148 0.11490146 0.2743617
0.0064816726 0.11472326 0.27393618
0.0070351609 0.11463414 0.27372339
0.0075966362 0.1146787 0.27382979
0.0081680501 0.1148569 0.27425531
0.0087479716 0.11512423 0.27489361
0.0093268948 0.11534698 0.27542552
0.0099003501 0.11548065 0.27574468
0.010467036 0.1155252 0.27585107
0.0110299 0.1155252 0.27585107
0.011597235 0.11556975 0.27595744
0.012165005 0.1156143 0.27606383
0.012738114 0.1157034 0.27627659
0.013296726 0.11565886 0.27617022
0.013838885 0.11548065 0.27574468
0.014345972 0.11503512 0.27468085
0.014814077 0.11432227 0.27297872
0.015269245 0.11356487 0.2711702
0.015735658 0.11294115 0.26968086
0.01625381 0.11271838 0.26914895
0.01680964 0.11276293 0.26925531
0.017407058 0.1130748 0.27000001
0.01804289 0.11360943 0.27127659
0.018720398 0.11436683 0.27308512
0.019427814 0.11525788 0.27521276
0.020143913 0.11614893 0.27734041
0.020844864 0.11690633 0.27914894
0.021520551 0.11748552 0.28053191
0.022159992 0.11784194 0.28138298
0.02277712 0.1180647 0.28191489
0.023396419 0.11828747 0.2824468
0.024008861 0.11846568 0.28287235
0.024623036 0.11864389 0.28329787
0.025248412 0.11886665 0.28382978
0.025866281 0.11904487 0.28425533
0.026475988 0.11917853 0.28457448
0.027056653 0.11917853 0.28457448
0.027637318 0.11917853 0.28457448
0.028239079 0.11926763 0.28478724
0.028852476 0.11940129 0.28510639
0.029500121 0.1196686 0.28574467
0.030127974 0.11984681 0.28617021
0.030746147 0.11998048 0.28648937
0.031353988 0.12006958 0.28670213
0.031950846 0.12011413 0.28680852
0.032560203 0.12020323 0.28702128
0.033170432 0.12029234 0.28723404
0.033769026 0.1203369 0.28734043
0.034342613 0.12029234 0.28723404
0.034838151 0.11998048 0.28648937
0.035159647 0.11908941 0.28436169
0.035245162 0.11744096 0.28042552
0.034967665 0.11285204 0.2694681
0.034914561 0.11093627 0.26489362
0.035042137 0.10964424 0.26180851
0.035359509 0.10897595 0.26021278
0.03578775 0.10866408 0.25946808
0.036272515 0.10853042 0.25914893
0.036801301 0.10853042 0.25914893
0.037314765 0.10848587 0.25904256
0.03782779 0.10844132 0.25893617
0.038371898 0.10848587 0.25904256
0.038948394 0.10861953 0.25936171
0.039542381 0.10879774 0.25978723
0.040187333 0.1091096 0.2605319
0.040851954 0.10946602 0.26138297
0.041570581 0.10995611 0.26255319
0.042311046 0.11049075 0.2638298
0.043108549 0.11115903 0.26542553
0.043912567 0.11182732 0.26702127
0.044793945 0.11267383 0.26904255
0.057746373 0.12269819 0.29297873
0.058704332 0.12345558 0.29478723
0.059712481 0.12430208 0.29680851
0.060772117 0.12523769 0.29904255
0.061797198 0.12608419 0.30106384
0.062764362 0.12679704 0.30276597
0.063627124 0.12728712 0.30393618
0.064449683 0.12768809 0.30489361
0.065321565 0.12817816 0.30606383
0.066266984 0.12880191 0.3075532
0.067311034 0.12960386 0.30946809
0.068432964 0.13053946 0.31170213
0.069493301 0.13134141 0.31361702
0.070394918 0.1318315 0.31478724
0.071181275 0.13209881 0.31542554
0.071849108 0.13214336 0.31553191
0.072370738 0.13192059 0.315
0.053057849 0.091823153 0.21925531
0.053401388 0.091644943 0.21882978
0.053769372 0.091511287 0.21851064
0.05418884 0.091466725 0.21840425
0.054607876 0.091422178 0.21829787
0.05497282 0.091288522 0.21797873
0.055579875 0.091555834 0.21861702
0.056462165 0.092268683 0.22031915
-0.14068876 0.09347932 0.22212766
-0.14030269 0.093524091 0.22223404
-0.13998312 0.093613632 0.22244681
-0.13966268 0.093703166 0.22265957
-0.13940789 0.093837477 0.22297873
-0.13908549 0.093927018 0.22319148
-0.13863008 0.093927018 0.22319148
-0.13817465 0.093927018 0.22319148
-0.13771924 0.093927018 0.22319148
-0.13726383 0.093927018 0.22319148
-0.13687363 0.093971789 0.22329788
-0.13654798 0.09406133 0.22351064
-0.13622147 0.094150871 0.22372341
-0.13602319 0.094329946 0.22414893
-0.13575885 0.094464257 0.22446808
-0.13542907 0.094553798 0.22468086
-0.13509843 0.094643332 0.22489361
-0.13476692 0.094732873 0.22510639
-0.13437107 0.094777644 0.22521277
-0.13391154 0.094777644 0.22521277
-0.133452 0.094777644 0.22521277
-0.13305527 0.094822414 0.22531915
-0.13259552 0.094822414 0.22531915
-0.13226055 0.094911955 0.22553192
-0.13198686 0.095046259 0.22585106
-0.13171187 0.095180571 0.22617021
-0.13143559 0.095314883 0.22648937
-0.13103497 0.095359653 0.22659574
-0.13069521 0.095449187 0.2268085
-0.1302935 0.095493965 0.2269149
-0.12995222 0.095583498 0.22712766
-0.12973137 0.095762581 0.22755319
-0.12944837 0.095896892 0.22787234
-0.12916405 0.096031204 0.22819149
-0.12887843 0.096165508 0.22851063
-0.12853172 0.096255049 0.22872341
-0.12812458 0.09629982 0.22882979
-0.127717 0.096344583 0.22893617
-0.12730901 0.096389361 0.22904256
-0.12690057 0.096434131 0.22914894
-0.1264917 0.096478894 0.22925532
-0.12614086 0.096568435 0.22946809
-0.12584743 0.096702747 0.22978723
-0.12549466 0.096792288 0.23
-0.12508318 0.096837051 0.23010638
-0.12461365 0.096837051 0.23010638
-0.12425891 0.096926592 0.23031914
-0.1239033 0.097016133 0.23053192
-0.12348987 0.097060904 0.2306383
-0.12307601 0.097105667 0.23074467
-0.12266171 0.097150445 0.23085107
-0.12230328 0.097239979 0.23106383
-0.12200008 0.09737429 0.23138298
-0.12169558 0.097508602 0.23170213
-0.12138977 0.097642906 0.23202127
-0.12102722 0.097732455 0.23223405
-0.1206638 0.097821988 0.2324468
-0.12029952 0.097911529 0.23265958
-0.11982478 0.097911529 0.23265958
-0.11935005 0.097911529 0.23265958
-0.11887531 0.097911529 0.23265958
-0.11845472 0.0979563 0.23276596
-0.11814153 0.098090611 0.23308511
-0.11788075 0.098269686 0.23351064
-0.11756473 0.098403998 0.23382978
-0.11719415 0.098493539 0.23404256
-0.1168227 0.098583072 0.23425531
-0.11650322 0.098717384 0.23457447
-0.11618244 0.098851696 0.23489362
-0.11575554 0.098896466 0.235
-0.11527603 0.098896466 0.235
-0.11474456 0.098851696 0.23489362
-0.11431701 0.098896466 0.235
-0.11388904 0.098941229 0.23510638
-0.11346063 0.098986007 0.23521277
-0.11313398 0.099120311 0.23553191
-0.11275516 0.099209853 0.23574468
-0.11237545 0.099299394 0.23595744
-0.11189399 0.099299394 0.23595744
-0.11141253 0.099299394 0.23595744
-0.11108111 0.099433705 0.2362766
-0.11079818 0.09961278 0.23670213
-0.11051352 0.099791862 0.23712766
-0.11022712 0.099970944 0.23755319
-0.10993898 0.10015002 0.23797873
-0.10964911 0.1003291 0.23840426
-0.10930878 0.10046341 0.2387234
-0.10882168 0.10046341 0.2387234
-0.10828629 0.10041863 0.23861702
-0.10775135 0.10037386 0.23851064
-0.10726467 0.10037386 0.23851064
-0.10682562 0.10041863 0.23861702
-0.10638614 0.10046341 0.2387234
-0.10594623 0.10050818 0.23882979
-0.10550588 0.10055295 0.23893617
-0.10511185 0.10064249 0.23914893
-0.1047635 0.10077679 0.23946808
-0.10436752 0.10086634 0.23968086
-0.10392457 0.1009111 0.23978724
-0.10352707 0.10100064 0.23999999
-0.1031287 0.10109019 0.24021277
-0.10272946 0.10117972 0.24042553
-0.1023746 0.10131403 0.24074468
-0.10201844 0.10144834 0.24106383
-0.10161616 0.10153788 0.24127659
-0.10125761 0.10167219 0.24159575
-0.10085338 0.10176173 0.2418085
-0.10044828 0.10185127 0.24202128
-0.10004231 0.10194081 0.24223404
-0.099635489 0.10203035 0.24244681
-0.099184282 0.10207512 0.24255319
-0.098819219 0.10220943 0.24287234
-0.098409772 0.10229897 0.2430851
-0.097999476 0.10238851 0.24329787
-0.097588293 0.10247804 0.24351063
-0.097091421 0.10247804 0.24351063
-0.09667895 0.10256759 0.24372341
-0.096265599 0.10265712 0.24393617
-0.095893152 0.10279144 0.24425532
-0.095519409 0.10292575 0.24457447
-0.095103018 0.10301528 0.24478723
-0.094685771 0.10310483 0.245
-0.094226748 0.10314959 0.24510638
-0.09368594 0.10310483 0.245
-0.093186028 0.10310483 0.245
-0.092766605 0.10319436 0.24521276
-0.092386343 0.10332868 0.24553192
-0.09196496 0.10341821 0.24574468
-0.091463529 0.10341821 0.24574468
-0.090922721 0.10337345 0.2456383
-0.090421498 0.10337345 0.2456383
-0.089959227 0.10341821 0.24574468
-0.089535251 0.10350776 0.24595745
-0.089110397 0.10359729 0.24617021
-0.088684678 0.10368683 0.24638298
-0.088258095 0.10377637 0.24659574
-0.087868497 0.10391068 0.24691489
-0.087477602 0.10404499 0.24723405
-0.08712282 0.10422407 0.24765958
-0.08676631 0.10440315 0.24808511
-0.086408064 0.10458223 0.24851064
-0.086048074 0.10476131 0.24893618
-0.085686348 0.10494039 0.24936171
-0.08528655 0.1050747 0.24968085
-0.084813207 0.10511947 0.24978724
-0.084339425 0.10516424 0.24989362
-0.083936587 0.10529854 0.25021276
-0.083567925 0.10547762 0.25063831
-0.083197512 0.1056567 0.25106382
-0.082790338 0.10579101 0.25138298
-0.082277395 0.10579101 0.25138298
-0.081729852 0.10574624 0.25127658
-0.081182748 0.10570148 0.25117022
-0.080636077 0.1056567 0.25106382
-0.080157742 0.10570148 0.25117022
-0.07974644 0.10583579 0.25148937
-0.079333834 0.1059701 0.25180852
-0.078886628 0.10605963 0.25202128
-0.078405462 0.1061044 0.25212765
-0.077891 0.1061044 0.25212765
-0.077376544 0.1061044 0.25212765
-0.076829664 0.10605963 0.25202128
-0.076347627 0.1061044 0.25212765
-0.075897172 0.10619394 0.25234044
-0.075477622 0.10632826 0.25265959
-0.075056762 0.10646255 0.25297871
-0.074571915 0.10650733 0.25308511
-0.074117757 0.10659686 0.25329787
-0.073631823 0.10664164 0.25340426
-0.073176153 0.10673118 0.25361702
-0.072750092 0.10686549 0.25393617
-0.072352976 0.10704456 0.25436169
-0.071984187 0.10726842 0.25489363
-0.071553558 0.10740272 0.25521275
-0.071092032 0.10749227 0.25542554
-0.070600227 0.10753703 0.25553191
-0.070078827 0.10753703 0.25553191
-0.069557421 0.10753703 0.25553191
-0.069036014 0.10753703 0.25553191
-0.068571664 0.10762658 0.2557447
-0.06813474 0.10776088 0.25606382
-0.067668438 0.10785042 0.25627661
-0.067201257 0.10793997 0.25648937
-0.066733211 0.1080295 0.25670213
-0.066236861 0.10807428 0.25680852
-0.065740064 0.10811904 0.25691488
-0.065242849 0.10816381 0.25702128
-0.064745195 0.10820859 0.25712767
-0.06427367 0.10829812 0.25734043
-0.063801281 0.10838766 0.25755319
-0.063380301 0.10856675 0.25797874
-0.062957577 0.10874582 0.25840425
-0.062558822 0.10896967 0.25893617
-0.062132414 0.10914875 0.25936171
-0.06165373 0.10923829 0.25957447
-0.061149124 0.10928305 0.25968084
-0.060619254 0.10928305 0.25968084
-0.060114004 0.10932782 0.25978723
-0.059608318 0.1093726 0.25989363
-0.059150562 0.10950691 0.26021278
-0.058715466 0.10968598 0.2606383
-0.058302384 0.10990983 0.26117021
-0.057863604 0.11008891 0.26159576
-0.057399765 0.11022322 0.26191488
-0.056888435 0.11026799 0.26202127
-0.056376673 0.11031277 0.26212767
-0.055864468 0.11035752 0.26223403
-0.055351835 0.1104023 0.26234043
-0.05481654 0.1104023 0.26234043
-0.054303259 0.11044708 0.26244682
-0.05381133 0.11053661 0.26265958
-0.053318538 0.11062615 0.26287234
-0.052824873 0.11071569 0.2630851
-0.052330349 0.11080524 0.26329789
-0.051855873 0.11093953 0.26361701
-0.051421523 0.11116339 0.26414895
-0.050984997 0.11138724 0.26468086
-0.050485477 0.11147678 0.26489362
-0.049965024 0.11152154 0.26499999
-0.049404461 0.11147678 0.26489362
-0.048863955 0.11147678 0.26489362
-0.048323449 0.11147678 0.26489362
-0.047782943 0.11147678 0.26489362
-0.047280382 0.11156631 0.26510638
-0.046795707 0.11170062 0.26542553
-0.04634681 0.11192447 0.26595744
-0.04589574 0.11214832 0.26648936
-0.045424398 0.1123274 0.2669149
-0.044933431 0.11246172 0.26723406
-0.044423487 0.11255126 0.26744682
-0.043877773 0.11255126 0.26744682
-0.043332055 0.11255126 0.26744682
-0.042786337 0.11255126 0.26744682
-0.042240623 0.11255126 0.26744682
-0.041711487 0.11259601 0.26755318
-0.041198295 0.11268556 0.26776597
-0.040700376 0.11281987 0.26808509
-0.040201161 0.11295418 0.26840425
-0.039700642 0.11308849 0.2687234
-0.03919882 0.1132228 0.26904255
-0.038695697 0.1133571 0.2693617
-0.038206331 0.11353618 0.26978722
-0.037715238 0.11371527 0.27021277
-0.037207771 0.11384958 0.27053192
-0.036684588 0.11393911 0.27074468
-0.036160536 0.11402865 0.27095744
-0.035621639 0.11407343 0.27106383
-0.035068542 0.11407343 0.27106383
-0.034515444 0.11407343 0.27106383
-0.033989005 0.11416296 0.27127659
-0.03347481 0.11429727 0.27159575
-0.032972205 0.11447635 0.27202126
-0.032467868 0.11465544 0.27244681
-0.031949334 0.11478974 0.27276596
-0.031429496 0.11492405 0.27308512
-0.030896327 0.11501359 0.27329788
-0.030362289 0.11510313 0.27351063
-0.029815795 0.1151479 0.27361703
-0.029268861 0.11519267 0.27372339
-0.028710337 0.11519267 0.27372339
-0.028162757 0.11523744 0.27382979
-0.027625464 0.11532698 0.27404255
-0.027108319 0.11550606 0.27446809
-0.026579147 0.11564037 0.27478725
-0.026038598 0.11572991 0.27500001
-0.025457758 0.11564037 0.27478725
-0.024868147 0.11550606 0.27446809
-0.024308104 0.11550606 0.27446809
-0.023794085 0.11572991 0.27500001
-0.023277894 0.11595376 0.27553192
-0.022741992 0.11608807 0.27585107
-0.022162022 0.11599853 0.27563831
-0.021557907 0.11577467 0.27510637
-0.020947848 0.11550606 0.27446809
-0.020332487 0.11519267 0.27372339
-0.019704798 0.11478974 0.27276596
-0.019058609 0.1142525 0.27148935
-0.018410381 0.11367049 0.27010638
-0.017795933 0.11326757 0.26914895
-0.017219476 0.11308849 0.2687234
-0.016671155 0.11308849 0.2687234
-0.016110068 0.11299895 0.26851064
-0.015556015 0.11295418 0.26840425
-0.015014295 0.11299895 0.26851064
-0.01447787 0.11308849 0.2687234
-0.013935064 0.11313326 0.26882979
-0.013402418 0.11326757 0.26914895
-0.01287355 0.11344665 0.26957446
-0.012357536 0.11376004 0.27031916
-0.011843127 0.11411819 0.2711702
-0.011329676 0.11452112 0.27212766
-0.010803892 0.1148345 0.27287233
-0.01026708 0.11505836 0.27340424
-0.0097280983 0.11528222 0.27393618
-0.0091869449 0.11550606 0.27446809
-0.0086369328 0.11564037 0.27478725
-0.0080887452 0.11581945 0.27521276
-0.007538822 0.11599853 0.27563831
-0.0069898539 0.11622238 0.27617022
-0.0064411899 0.11649099 0.2768085
-0.0058921808 0.11680438 0.2775532
-0.0053421734 0.11716254 0.27840427
0.0042639794 0.11577467 0.27510637
0.004819727 0.11564037 0.27478725
0.0053720889 0.11546128 0.2743617
0.0059204143 0.11523744 0.27382979
0.0064690863 0.11505836 0.27340424
0.00702149 0.11496881 0.27319148
0.007578928 0.11496881 0.27319148
0.0081427023 0.11505836 0.27340424
0.0087141171 0.11523744 0.27382979
0.0092836656 0.11537175 0.27414894
0.0098506957 0.11546128 0.2743617
0.010414558 0.11550606 0.27446809
0.010978855 0.11555082 0.27457446
0.011548057 0.11564037 0.27478725
0.012118127 0.11572991 0.27500001
0.012689065 0.11581945 0.27521276
0.013245504 0.11577467 0.27510637
0.013774817 0.11550606 0.27446809
0.014273741 0.11501359 0.27329788
0.014739025 0.11429727 0.27159575
0.015185382 0.11349142 0.26968086
0.015667375 0.11299895 0.26851064
0.01619599 0.11286464 0.26819149
0.016776433 0.11308849 0.2687234
0.017407058 0.11362573 0.27000001
0.018078268 0.11438681 0.27180851
0.018771447 0.11523744 0.27382979
0.019472873 0.11608807 0.27585107
0.020151641 0.11675961 0.27744681
0.020813089 0.11729685 0.27872342
0.021438941 0.11761024 0.27946809
0.022051077 0.11783408 0.28
0.022665383 0.11805794 0.28053191
0.023281859 0.11828178 0.28106382
0.023891479 0.11846086 0.28148937
0.024493588 0.11859518 0.28180853
0.025115926 0.11881903 0.28234044
0.025740435 0.11904287 0.28287235
0.026357215 0.11922195 0.28329787
0.026945392 0.11926672 0.28340426
0.027513335 0.11922195 0.28329787
0.028101945 0.11926672 0.28340426
0.028701752 0.11935626 0.28361702
0.029335378 0.1195801 0.28414893
0.029971173 0.11980395 0.28468084
0.030597726 0.11998304 0.28510639
0.031202743 0.12007257 0.28531915
0.03180863 0.12016211 0.28553191
0.032427453 0.12029643 0.28585106
0.033035293 0.12038596 0.28606382
0.0336315 0.12043074 0.28617021
0.03421542 0.12043074 0.28617021
0.034747593 0.12025165 0.28574467
0.035159647 0.11966964 0.28436169
0.0353655 0.11841609 0.28138298
0.035382558 0.11658054 0.27702129
0.035298977 0.11447635 0.27202126
