# .PCD v0.7 - Point Cloud Data file format
VERSION 0.7
FIELDS x y z
SIZE 4 4 4
TYPE F F F
COUNT 1 1 1
WIDTH 1343
HEIGHT 1
VIEWPOINT 0 0 0 1 0 0 0
POINTS 1343
DATA ascii
-0.026860971 0.027976578 0.19244681
-0.026541445 0.028053904 0.19297872
-0.02621975 0.02813123 0.19351064
-0.025895884 0.028208556 0.19404255
-0.025569851 0.028285883 0.19457448
-0.025269167 0.028394138 0.19531915
-0.02496545 0.028502395 0.19606383
-0.02464536 0.028595185 0.19670212
-0.024296446 0.028657045 0.19712766
-0.023945792 0.028718907 0.19755319
-0.023568047 0.028749838 0.19776596
-0.023201894 0.028796233 0.1980851
-0.022822196 0.028827164 0.19829787
-0.022441629 0.028858094 0.19851063
-0.022083811 0.028919954 0.19893616
-0.021724259 0.028981816 0.1993617
-0.021374347 0.029059144 0.19989362
-0.020988787 0.029090073 0.20010638
-0.02060236 0.029121004 0.20031916
-0.020225786 0.029167399 0.20063829
-0.056585331 0.024715286 0.16765958
-0.056207538 0.024699602 0.16755319
-0.055794712 0.024668239 0.16734043
-0.055488512 0.024683921 0.16744681
-0.055251952 0.024730967 0.16776596
-0.055014089 0.024778016 0.16808511
-0.054774918 0.024825061 0.16840425
-0.054465685 0.024840744 0.16851065
-0.054121844 0.024840744 0.16851065
-0.053744048 0.024825061 0.16840425
-0.053366695 0.024809379 0.16829787
-0.05298977 0.024793698 0.16819149
-0.052679881 0.024809379 0.16829787
-0.052435722 0.024856426 0.16861703
-0.052223127 0.024919156 0.16904256
-0.052008796 0.024981884 0.16946809
-0.051792726 0.025044614 0.16989362
-0.051542703 0.025091659 0.17021276
-0.051259387 0.025123024 0.17042553
-0.050975196 0.025154389 0.17063829
-0.050658584 0.025170073 0.17074469
-0.050372873 0.025201436 0.17095745
-0.050086301 0.025232801 0.17117022
-0.049798854 0.025264166 0.17138298
-0.049449153 0.025264166 0.17138298
-0.049099453 0.025264166 0.17138298
-0.048689231 0.025232801 0.17117022
-0.048279874 0.025201436 0.17095745
-0.047901217 0.025185755 0.17085107
-0.047434162 0.025123024 0.17042553
-0.046968848 0.025060296 0.17
-0.046476092 0.024981884 0.16946809
-0.046014465 0.024919156 0.16904256
-0.045612056 0.024887791 0.16882978
-0.045267563 0.024887791 0.16882978
-0.044979688 0.024919156 0.16904256
-0.044719029 0.024966201 0.1693617
-0.044429202 0.024997566 0.16957447
-0.044166159 0.025044614 0.16989362
-0.043874372 0.025075978 0.17010638
-0.041894365 0.02556213 0.17340426
-0.041693449 0.025656223 0.17404255
-0.041414127 0.02570327 0.17436171
-0.041083395 0.025718952 0.17446809
-0.040677734 0.025687588 0.17425533
-0.040346786 0.02570327 0.17436171
-0.040064204 0.025750315 0.17468084
-0.039852872 0.02584441 0.17531915
-0.039662898 0.025954187 0.17606384
-0.039469883 0.026063962 0.17680851
-0.039203238 0.02612669 0.17723404
-0.038888227 0.026158057 0.17744681
-0.038549248 0.026173739 0.17755319
-0.038232714 0.026205102 0.17776595
-0.03793798 0.026252149 0.1780851
-0.037686832 0.02633056 0.17861702
-0.037433516 0.026408974 0.17914894
-0.037156019 0.026471702 0.17957447
-0.036876783 0.026534433 0.18000001
-0.03657423 0.026581477 0.18031915
-0.036270376 0.026628524 0.1806383
-0.035944074 0.026659887 0.18085106
-0.035595983 0.026675573 0.18095745
-0.035268165 0.026706936 0.18117021
-0.034939479 0.026738301 0.18138298
-0.034630194 0.026785346 0.18170212
-0.034319613 0.026832394 0.18202128
-0.034007732 0.026879441 0.18234043
-0.033694543 0.02692649 0.18265958
-0.03338005 0.026973534 0.18297872
-0.033102639 0.027051946 0.18351063
-0.032804083 0.027114674 0.18393616
-0.032541305 0.02720877 0.18457447
-0.032238841 0.027271498 0.185
-0.031934641 0.027334228 0.18542553
-0.031610601 0.027381275 0.18574469
-0.031285256 0.027428322 0.18606383
-0.030993951 0.027506731 0.18659574
-0.030683022 0.027569462 0.18702127
-0.030387595 0.027647873 0.1875532
-0.030089995 0.027726285 0.18808511
-0.029807026 0.027820379 0.1887234
-0.029488282 0.027883107 0.18914893
-0.029167801 0.027945837 0.18957447
-0.028845586 0.028008565 0.19
-0.0285057 0.028055614 0.19031915
-0.028180227 0.028118342 0.19074468
-0.027837519 0.028165389 0.19106384
-0.02750879 0.028228119 0.19148937
-0.027163258 0.028275164 0.19180851
-0.026816424 0.028322212 0.19212766
-0.02649755 0.028400622 0.19265957
-0.026176507 0.028479034 0.19319148
-0.025853295 0.028557448 0.19372341
-0.025541889 0.028651539 0.1943617
-0.025241643 0.028761316 0.19510639
-0.024938356 0.028871091 0.19585106
-0.024605375 0.028949505 0.19638298
-0.024270222 0.029027915 0.1969149
-0.023920003 0.029090645 0.19734043
-0.023542691 0.029122008 0.19755319
-0.023176974 0.029169055 0.19787234
-0.022797707 0.029200418 0.1980851
-0.022441629 0.029263148 0.19851063
-0.022083811 0.029325876 0.19893616
-0.021735853 0.02940429 0.19946809
-0.02136297 0.029451335 0.19978723
-0.020988787 0.029498383 0.20010638
-0.0206133 0.02954543 0.20042554
-0.020236511 0.029592477 0.20074467
-0.019879434 0.029670889 0.2012766
-0.019540764 0.029780664 0.20202127
-0.05669304 0.025105087 0.16797872
-0.056278914 0.02507329 0.16776596
-0.055865649 0.025041489 0.16755319
-0.055523764 0.025041489 0.16755319
-0.055216916 0.02505739 0.16765958
-0.054979265 0.025105087 0.16797872
-0.054671116 0.025120988 0.16808511
-0.054362528 0.025136886 0.16819149
-0.054019339 0.025136886 0.16819149
-0.053676151 0.025136886 0.16819149
-0.05329923 0.025120988 0.16808511
-0.05298977 0.025136886 0.16819149
-0.052679881 0.025152786 0.16829787
-0.052402642 0.025184585 0.16851065
-0.05212453 0.025216382 0.1687234
-0.051878203 0.025264081 0.16904256
-0.051630568 0.025311777 0.1693617
-0.051413845 0.025375376 0.16978723
-0.051195391 0.025438974 0.17021276
-0.050943419 0.025486672 0.17053191
-0.050658584 0.025518471 0.17074469
-0.050372873 0.025550269 0.17095745
-0.050086301 0.02558207 0.17117022
-0.049798854 0.025613867 0.17138298
-0.049449153 0.025613867 0.17138298
-0.049068976 0.025597967 0.1712766
-0.048689231 0.02558207 0.17117022
-0.048309918 0.025566168 0.17106383
-0.047960866 0.025566168 0.17106383
-0.047552601 0.025534371 0.17085107
-0.047115806 0.025486672 0.17053191
-0.046592794 0.025391277 0.16989362
-0.046072379 0.02529588 0.16925532
-0.045612056 0.025232282 0.16882978
-0.045267563 0.025232282 0.16882978
-0.045007996 0.02527998 0.16914894
-0.04477521 0.025343578 0.16957447
-0.044540692 0.025407175 0.17
-0.044249121 0.025438974 0.17021276
-0.041108444 0.026090847 0.17457446
-0.040677734 0.026043151 0.17425533
-0.040346786 0.02605905 0.17436171
-0.040088605 0.026122646 0.17478724
-0.039949603 0.02626574 0.17574468
-0.039782725 0.026392935 0.17659575
-0.039564878 0.02648833 0.17723404
-0.039273832 0.026536029 0.17755319
-0.03891154 0.026536029 0.17755319
-0.038526151 0.026520131 0.17744681
-0.038209837 0.026551928 0.17765957
-0.03793798 0.026615527 0.1780851
-0.037709281 0.026710924 0.17872341
-0.037455745 0.02679042 0.17925532
-0.037200041 0.026869915 0.17978723
-0.036920369 0.026933514 0.18021277
-0.036660541 0.027013009 0.18074468
-0.03635582 0.027060708 0.18106383
-0.036007509 0.027076608 0.18117021
-0.035637837 0.027076608 0.18117021
-0.035288874 0.027092507 0.18127659
-0.034959968 0.027124306 0.18148936
-0.034670748 0.027187904 0.1819149
-0.034379791 0.027251501 0.18234043
-0.034067255 0.027299199 0.18265958
-0.033753414 0.027346896 0.18297872
-0.033438273 0.027394595 0.18329787
-0.033121832 0.027442293 0.18361703
-0.03282306 0.027505891 0.18404256
-0.032541305 0.027585387 0.18457447
-0.032238841 0.027648985 0.185
-0.031934641 0.027712582 0.18542553
-0.031610601 0.027760282 0.18574469
-0.031321034 0.027839778 0.1862766
-0.031029293 0.027919274 0.18680851
-0.03071793 0.027982872 0.18723404
-0.030422067 0.028062368 0.18776596
-0.030107014 0.028125966 0.18819149
-0.029807026 0.028205462 0.1887234
-0.029488282 0.02826906 0.18914893
-0.029151434 0.028316759 0.18946809
-0.028829435 0.028380355 0.18989362
-0.028489765 0.028428053 0.19021277
-0.02816451 0.028491652 0.1906383
-0.027837519 0.02855525 0.19106384
-0.027493505 0.028602945 0.19138297
-0.027148193 0.028650643 0.19170213
-0.026801577 0.028698344 0.19202128
-0.026482919 0.02877784 0.19255319
-0.026162094 0.028857335 0.1930851
-0.025867492 0.028968632 0.19382979
-0.025541889 0.029048128 0.1943617
-0.025227878 0.029143523 0.19499999
-0.024911266 0.029238921 0.1956383
-0.024578717 0.029318416 0.19617021
-0.024230886 0.029382015 0.19659574
-0.023881318 0.029445613 0.19702128
-0.023517337 0.029493311 0.19734043
-0.023152053 0.02954101 0.19765958
-0.022785464 0.029588707 0.19797872
-0.022441629 0.029668203 0.19851063
-0.022083811 0.029731799 0.19893616
-0.021724259 0.029795397 0.1993617
-0.021351594 0.029843096 0.19968085
-0.020988787 0.029906694 0.20010638
-0.020624241 0.02997029 0.20053191
-0.020268682 0.030049788 0.20106383
-0.019910954 0.030129284 0.20159574
-0.019561347 0.030224681 0.20223404
-0.019209132 0.030320076 0.20287234
-0.018854313 0.030415474 0.20351064
-0.018477611 0.030479072 0.20393617
-0.018089751 0.030526768 0.20425531
-0.01768218 0.030542668 0.20436171
-0.056836657 0.025512308 0.16840425
-0.056350287 0.025447842 0.16797872
-0.055901125 0.025399493 0.16765958
-0.055523764 0.025383376 0.16755319
-0.055181876 0.025383376 0.16755319
-0.054909632 0.025415611 0.16776596
-0.054567307 0.025415611 0.16776596
-0.054259371 0.025431726 0.16787234
-0.053882666 0.025415611 0.16776596
-0.053574298 0.025431726 0.16787234
-0.05326549 0.025447842 0.16797872
-0.053023286 0.025496192 0.16829787
-0.052713178 0.025512308 0.16840425
-0.052369557 0.025512308 0.16840425
-0.052025933 0.025512308 0.16840425
-0.051747609 0.025544541 0.16861703
-0.051500842 0.02559289 0.16893616
-0.051317208 0.025673473 0.16946809
-0.051099401 0.025737939 0.16989362
-0.050879862 0.025802404 0.17031915
-0.050595455 0.025834637 0.17053191
-0.050341528 0.025882985 0.17085107
-0.050055169 0.025915219 0.17106383
-0.049767945 0.025947452 0.1712766
-0.049449153 0.025963567 0.17138298
-0.049068976 0.025947452 0.1712766
-0.048689231 0.025931336 0.17117022
-0.048309918 0.025915219 0.17106383
-0.047990698 0.025931336 0.17117022
-0.04764143 0.025931336 0.17117022
-0.047203984 0.025882985 0.17085107
-0.046709493 0.025802404 0.17031915
-0.046188213 0.025705704 0.16968085
-0.045727018 0.025641238 0.16925532
-0.045353137 0.025625123 0.16914894
-0.045092918 0.025673473 0.16946809
-0.04485948 0.025737939 0.16989362
-0.04462431 0.025802404 0.17031915
-0.039612375 0.026882205 0.17744681
-0.039297361 0.026914436 0.17765957
-0.038934853 0.026914436 0.17765957
-0.038526151 0.026882205 0.17744681
-0.038186956 0.026898321 0.17755319
-0.037915319 0.026962787 0.17797872
-0.037686832 0.027059484 0.17861702
-0.037433516 0.027140068 0.17914894
-0.037200041 0.027236765 0.17978723
-0.037007548 0.027365698 0.1806383
-0.036790006 0.027478512 0.18138298
-0.036483981 0.027526861 0.18170212
-0.03609208 0.027510745 0.18159574
-0.035679691 0.027478512 0.18138298
-0.035309583 0.027478512 0.18138298
-0.035000954 0.027526861 0.18170212
-0.034711298 0.027591327 0.18212765
-0.034460023 0.027688026 0.18276596
-0.034166459 0.027752493 0.18319149
-0.033851534 0.027800839 0.18351063
-0.0335159 0.027833074 0.18372341
-0.033179399 0.027865306 0.18393616
-0.032842029 0.02789754 0.18414894
-0.032541305 0.027962005 0.18457447
-0.032220304 0.028010355 0.18489362
-0.03191632 0.028074821 0.18531916
-0.031628706 0.028155403 0.18585107
-0.031338919 0.028235985 0.18638298
-0.031064633 0.028332682 0.18702127
-0.030770291 0.028413266 0.1875532
-0.030439302 0.028461615 0.18787234
-0.030124031 0.028526079 0.18829787
-0.029807026 0.028590545 0.1887234
-0.029471697 0.028638896 0.18904255
-0.029151434 0.028703362 0.18946809
-0.028813284 0.02875171 0.18978724
-0.028489765 0.028816177 0.19021277
-0.02816451 0.028880643 0.1906383
-0.027822016 0.02892899 0.19095744
-0.027478224 0.02897734 0.19127659
-0.027148193 0.029041806 0.19170213
-0.026816424 0.029106272 0.19212766
-0.02649755 0.029186854 0.19265957
-0.026190924 0.029283553 0.19329788
-0.025895884 0.029396366 0.19404255
-0.025569851 0.02947695 0.19457448
-0.025227878 0.029541414 0.19499999
-0.024884172 0.02960588 0.19542553
-0.024538729 0.029670347 0.19585106
-0.024191549 0.029734811 0.19627659
-0.02385553 0.029815396 0.19680852
-0.023491981 0.029863743 0.19712766
-0.02313959 0.029928209 0.19755319
-0.022785464 0.029992675 0.19797872
-0.022429602 0.030057142 0.19840425
-0.022083811 0.030137721 0.19893616
-0.021712668 0.030186072 0.19925532
-0.021351594 0.030250538 0.19968085
-0.020988787 0.030315004 0.20010638
-0.020624241 0.03037947 0.20053191
-0.020279408 0.030476168 0.20117021
-0.01993197 0.030572867 0.20180851
-0.019571636 0.030653449 0.20234042
-0.019209132 0.030734031 0.20287234
-0.018854313 0.03083073 0.20351064
-0.018477611 0.030895196 0.20393617
-0.018089751 0.030943545 0.20425531
-0.017691385 0.030975778 0.20446809
-0.017292149 0.031008009 0.20468085
-0.016892046 0.031040244 0.20489362
-0.057469252 0.025986599 0.16925532
-0.05690847 0.025888599 0.16861703
-0.056385975 0.025806932 0.16808511
-0.055901125 0.025741598 0.16765958
-0.055488512 0.025708929 0.16744681
-0.055146839 0.025708929 0.16744681
-0.054805171 0.025708929 0.16744681
-0.054463502 0.025708929 0.16744681
-0.054121833 0.025708929 0.16744681
-0.053814329 0.025725262 0.16755319
-0.053506397 0.025741598 0.16765958
-0.05326549 0.025790596 0.16797872
-0.053023286 0.025839597 0.16829787
-0.052746482 0.025872266 0.16851065
-0.052435722 0.025888599 0.16861703
-0.052091666 0.025888599 0.16861703
-0.051747609 0.025888599 0.16861703
-0.051468413 0.025921265 0.16882978
-0.051252779 0.025986599 0.16925532
-0.051035404 0.026051933 0.16968085
-0.050784521 0.026100934 0.17
-0.05053233 0.026149936 0.17031915
-0.05024749 0.026182601 0.17053191
-0.049992912 0.026231602 0.17085107
-0.049706116 0.026264269 0.17106383
-0.049387764 0.026280602 0.17117022
-0.049008019 0.026264269 0.17106383
-0.048658967 0.026264269 0.17106383
-0.048309918 0.026264269 0.17106383
-0.047960866 0.026264269 0.17106383
-0.047611818 0.026264269 0.17106383
-0.047203984 0.026231602 0.17085107
-0.046767842 0.026182601 0.17053191
-0.046333004 0.026133601 0.17021276
-0.045899469 0.026084602 0.16989362
-0.045495756 0.026051933 0.16968085
-0.045177836 0.026068266 0.16978723
-0.044915661 0.026117267 0.17010638
-0.036548063 0.027946619 0.18202128
-0.03613437 0.027913952 0.18180852
-0.035700615 0.027864952 0.18148936
-0.035330292 0.027864952 0.18148936
-0.035021447 0.027913952 0.18180852
-0.034792397 0.028028287 0.18255319
-0.034580372 0.028158953 0.18340425
-0.03432519 0.028256956 0.18404256
-0.034008525 0.028305955 0.1843617
-0.033632342 0.028305955 0.1843617
-0.033256158 0.028305955 0.1843617
-0.032879975 0.028305955 0.1843617
-0.032541305 0.028338624 0.18457447
-0.032201763 0.028371289 0.18478723
-0.031879675 0.02842029 0.18510638
-0.031592496 0.028501958 0.18563829
-0.031338919 0.028616292 0.18638298
-0.031082304 0.028730627 0.18712766
-0.030805197 0.028828628 0.18776596
-0.030473776 0.028877629 0.18808511
-0.030141054 0.02892663 0.18840426
-0.029807026 0.028975628 0.1887234
-0.029471697 0.029024631 0.18904255
-0.029135067 0.029073631 0.18936171
-0.028797131 0.02912263 0.18968084
-0.02847383 0.029187964 0.19010638
-0.028148791 0.029253298 0.19053191
-0.027822016 0.029318633 0.19095744
-0.027493505 0.029383967 0.19138297
-0.027163258 0.029449301 0.19180851
-0.02684612 0.029530969 0.19234042
-0.026541445 0.02962897 0.19297872
-0.026234165 0.029726971 0.19361702
-0.02592428 0.029824972 0.19425532
-0.02558383 0.029890306 0.19468085
-0.025227878 0.029939305 0.19499999
-0.024870627 0.029988306 0.19531915
-0.0245254 0.03005364 0.19574468
-0.024178438 0.030118974 0.19617021
-0.023829738 0.030184308 0.19659574
-0.023479303 0.030249642 0.19702128
-0.023127131 0.030314976 0.19744681
-0.022773221 0.03038031 0.19787234
-0.022429602 0.030461978 0.19840425
-0.022072002 0.030527312 0.19882978
-0.021712668 0.030592646 0.19925532
-0.021340221 0.030641647 0.19957447
-0.020977629 0.030706981 0.2
-0.020624241 0.030788649 0.20053191
-0.020279408 0.030886648 0.20117021
-0.019921463 0.030968318 0.20170213
-0.019561347 0.031049985 0.20223404
-0.019199058 0.031131651 0.20276596
-0.0188346 0.031213319 0.20329787
-0.018467972 0.031294987 0.20382978
-0.018089751 0.031360321 0.20425531
-0.01770059 0.031409319 0.20457447
-0.017301138 0.03144199 0.20478724
-0.016909586 0.031490989 0.20510638
-0.016508183 0.031523656 0.20531915
-0.016122581 0.03158899 0.20574468
-0.015743362 0.031670656 0.2062766
-0.061844103 0.027192589 0.17478724
-0.061450031 0.027176037 0.17468084
-0.06101919 0.027142936 0.17446809
-0.060478244 0.027060185 0.17393617
-0.059865922 0.02694433 0.17319149
-0.059146978 0.026778825 0.17212766
-0.058323357 0.026563669 0.17074469
-0.057541501 0.02636506 0.16946809
-0.056944374 0.026249206 0.1687234
-0.056350287 0.026133351 0.16797872
-0.055865649 0.026067149 0.16755319
-0.055418007 0.026017498 0.16723405
-0.055006698 0.025984397 0.16702127
-0.054665893 0.025984397 0.16702127
-0.054325093 0.025984397 0.16702127
-0.054018676 0.026000947 0.16712765
-0.053745996 0.02603405 0.16734043
-0.053506397 0.026083702 0.16765958
-0.05329923 0.026149904 0.16808511
-0.053123839 0.026232656 0.16861703
-0.052879676 0.026282307 0.16893616
-0.052568052 0.026298858 0.16904256
-0.052223127 0.026298858 0.16904256
-0.051878203 0.026298858 0.16904256
-0.051565707 0.026315408 0.16914894
-0.051284991 0.026348509 0.1693617
-0.051003411 0.026381612 0.16957447
-0.050720956 0.026414711 0.16978723
-0.05043764 0.026447814 0.17
-0.050153449 0.026480913 0.17021276
-0.049868397 0.026514016 0.17042553
-0.04958247 0.026547115 0.17063829
-0.049264986 0.026563669 0.17074469
-0.048916589 0.026563669 0.17074469
-0.048568189 0.026563669 0.17074469
-0.048219789 0.026563669 0.17074469
-0.047871392 0.026563669 0.17074469
-0.04749338 0.026547115 0.17063829
-0.047145199 0.026547115 0.17063829
-0.046826195 0.026563669 0.17074469
-0.046477795 0.026563669 0.17074469
-0.046129398 0.026563669 0.17074469
-0.045723949 0.026530566 0.17053191
-0.045319371 0.026497466 0.17031915
-0.035330292 0.028235275 0.18148936
-0.035041939 0.028301477 0.1819149
-0.034832951 0.028433882 0.18276596
-0.034700722 0.02863249 0.18404256
-0.034464076 0.028748341 0.18478723
-0.034145895 0.028797993 0.18510638
-0.033748787 0.028781444 0.185
-0.033332918 0.028748341 0.18478723
-0.032917921 0.028715242 0.18457447
-0.032541305 0.028715242 0.18457447
-0.032164685 0.028715242 0.18457447
-0.031806391 0.028731791 0.18468085
-0.031520076 0.028814545 0.18521276
-0.031285256 0.028946949 0.18606383
-0.031064633 0.029095903 0.18702127
-0.030805197 0.029211758 0.18776596
-0.030473776 0.02926141 0.18808511
-0.030124031 0.029294511 0.18829787
-0.029773422 0.029327612 0.18851064
-0.029455112 0.029393815 0.18893617
-0.029118696 0.029443465 0.18925531
-0.028797131 0.029509667 0.18968084
-0.028457897 0.02955932 0.19
-0.028133076 0.029625522 0.19042553
-0.027806517 0.029691724 0.19085106
-0.027493505 0.029774478 0.19138297
-0.027178323 0.029857229 0.19191489
-0.026875818 0.029956535 0.19255319
-0.026570708 0.030055836 0.19319148
-0.026262995 0.030155141 0.19382979
-0.025938477 0.030237895 0.1943617
-0.02558383 0.030287547 0.19468085
-0.025227878 0.030337196 0.19499999
-0.024857081 0.030370299 0.19521277
-0.024498744 0.030419951 0.19553192
-0.024152214 0.030486153 0.19595745
-0.023816844 0.030568905 0.19648936
-0.023466626 0.030635107 0.1969149
-0.02311467 0.030701311 0.19734043
-0.022773221 0.030784063 0.19787234
-0.022417577 0.030850265 0.19829787
-0.022072002 0.030933017 0.19882978
-0.021712668 0.030999219 0.19925532
-0.021340221 0.031048872 0.19957447
-0.020977629 0.031115074 0.2
-0.0206133 0.031181278 0.20042554
-0.020268682 0.031280581 0.20106383
-0.019910954 0.031363331 0.20159574
-0.019540764 0.031429533 0.20202127
-0.019178914 0.03151229 0.2025532
-0.01881489 0.03159504 0.20308511
-0.018448696 0.031677794 0.20361702
-0.01808033 0.031760547 0.20414893
-0.017691385 0.031810198 0.20446809
-0.017301138 0.031859852 0.20478724
-0.016909586 0.031909499 0.20510638
-0.016525289 0.031975701 0.20553191
-0.016130917 0.032025356 0.20585106
-0.015743362 0.032091558 0.2062766
-0.015354071 0.03215776 0.20670213
-0.014955358 0.032207411 0.20702128
-0.014555341 0.032257061 0.20734042
-0.014146772 0.032290164 0.20755319
-0.063258678 0.027700145 0.17574468
-0.062671624 0.027599538 0.17510638
-0.062125035 0.0275157 0.17457446
-0.061693542 0.027482167 0.17436171
-0.061262909 0.02744863 0.17414893
-0.060833156 0.027415095 0.17393617
-0.060293294 0.027331257 0.17340426
-0.059718832 0.02723065 0.17276596
-0.059000753 0.027062975 0.17170213
-0.058287013 0.026895298 0.17063829
-0.057541501 0.026710855 0.16946809
-0.056872565 0.026559947 0.16851065
-0.056314599 0.02645934 0.16787234
-0.055794712 0.026375502 0.16734043
-0.055347499 0.026325198 0.16702127
-0.054901585 0.026274895 0.16670212
-0.05452662 0.026258128 0.16659574
-0.054221287 0.026274895 0.16670212
-0.053949907 0.02630843 0.1669149
-0.053745996 0.026375502 0.16734043
-0.053574298 0.02645934 0.16787234
-0.053434163 0.026559947 0.16851065
-0.053257905 0.026643785 0.16904256
-0.053012874 0.026694085 0.1693617
-0.052733466 0.026727622 0.16957447
-0.052387454 0.026727622 0.16957447
-0.052041441 0.026727622 0.16957447
-0.051663 0.026710855 0.16946809
-0.051317208 0.026710855 0.16946809
-0.050971415 0.026710855 0.16946809
-0.050657399 0.026727622 0.16957447
-0.050342951 0.02674439 0.16968085
-0.050059415 0.026777925 0.16989362
-0.04974388 0.026794693 0.17
-0.049427912 0.02681146 0.17010638
-0.049111512 0.026828228 0.17021276
-0.048794676 0.026844997 0.17031915
-0.048447147 0.026844997 0.17031915
-0.048099615 0.026844997 0.17031915
-0.047752086 0.026844997 0.17031915
-0.047404554 0.026844997 0.17031915
-0.047086418 0.026861763 0.17042553
-0.046826195 0.026912067 0.17074469
-0.046593629 0.026979137 0.17117022
-0.046359323 0.027046205 0.17159574
-0.045980662 0.027029438 0.17148936
-0.034224391 0.029242769 0.18553191
-0.033807009 0.029209234 0.18531916
-0.0333713 0.029158929 0.185
-0.032936893 0.029108627 0.18468085
-0.032541305 0.029091859 0.18457447
-0.032109071 0.029041557 0.18425532
-0.03191632 0.029209234 0.18531916
-0.032008901 0.029645192 0.18808511
-0.0310081 0.030164987 0.19138297
-0.030294225 0.029846404 0.18936171
-0.029756621 0.029695496 0.18840426
-0.02942194 0.029745797 0.1887234
-0.029102329 0.029812867 0.18914893
-0.028780982 0.029879939 0.18957447
-0.028441964 0.029930241 0.18989362
-0.028101644 0.029980546 0.19021277
-0.027775519 0.030047616 0.1906383
-0.027478224 0.030148221 0.19127659
-0.02719339 0.030265596 0.19202128
-0.026905514 0.030382967 0.19276595
-0.026599972 0.030483574 0.19340426
-0.026277408 0.030567411 0.19393617
-0.025938477 0.030634481 0.1943617
-0.02558383 0.030684786 0.19468085
-0.025214115 0.030718321 0.19489361
-0.024857081 0.030768624 0.19521277
-0.024498744 0.030818928 0.19553192
-0.024152214 0.030885998 0.19595745
-0.023803949 0.030953068 0.19638298
-0.023466626 0.031036906 0.1969149
-0.02311467 0.031103976 0.19734043
-0.022773221 0.031187814 0.19787234
-0.022417577 0.031254884 0.19829787
-0.022060195 0.031321958 0.19872341
-0.021701075 0.031389028 0.19914894
-0.021340221 0.031456098 0.19957447
-0.020977629 0.031523168 0.2
-0.0206133 0.031590238 0.20042554
-0.020257959 0.031674076 0.20095745
-0.019889941 0.031741146 0.20138298
-0.019520186 0.031808216 0.20180851
-0.019148694 0.03187529 0.20223404
-0.018795177 0.031975891 0.20287234
-0.018429417 0.032059733 0.20340426
-0.018061487 0.03214357 0.20393617
-0.01768218 0.032210641 0.20436171
-0.017292149 0.032260943 0.20468085
-0.016909586 0.032328013 0.20510638
-0.016525289 0.032395083 0.20553191
-0.016130917 0.032445386 0.20585106
-0.015743362 0.03251246 0.2062766
-0.015354071 0.03257953 0.20670213
-0.014970727 0.032663368 0.20723404
-0.01456281 0.032696903 0.20744681
-0.014154023 0.032730438 0.20765957
-0.013744369 0.032763973 0.20787235
-0.013361114 0.032864578 0.20851064
-0.013001652 0.033032253 0.20957446
-0.012631468 0.033183165 0.21053192
-0.06596794 0.02814367 0.17627659
-0.065529071 0.028109701 0.17606384
-0.065051682 0.028058747 0.17574468
-0.064614758 0.028024776 0.17553191
-0.064217649 0.028007792 0.17542553
-0.063898422 0.028024776 0.17553191
-0.063540258 0.028024776 0.17553191
-0.063067213 0.027973823 0.17521277
-0.062481247 0.027871914 0.17457446
-0.061897889 0.027770007 0.17393617
-0.061392412 0.027702067 0.17351064
-0.060926098 0.027651113 0.17319149
-0.060461085 0.027600158 0.17287233
-0.059960384 0.02753222 0.1724468
-0.059387878 0.027430313 0.17180851
-0.058744863 0.027294435 0.17095745
-0.058068983 0.027141571 0.17
-0.057397012 0.026988709 0.16904256
-0.056800757 0.026869817 0.16829787
-0.056243226 0.02676791 0.16765958
-0.055723768 0.026682984 0.16712765
-0.055241738 0.026615044 0.16670212
-0.054831516 0.026581077 0.16648936
-0.054422159 0.026547106 0.16627659
-0.054117486 0.026564091 0.16638298
-0.053881135 0.026615044 0.16670212
-0.053745996 0.026716955 0.16734043
-0.053676151 0.026852831 0.16819149
-0.05360283 0.026988709 0.16904256
-0.053425487 0.027073633 0.16957447
-0.053212672 0.027141571 0.17
-0.052865796 0.027141571 0.17
-0.052518915 0.027141571 0.17
-0.052106738 0.027107602 0.16978723
-0.051727861 0.027090617 0.16968085
-0.051317208 0.027056649 0.16946809
-0.050939415 0.027039662 0.1693617
-0.050593838 0.027039662 0.1693617
-0.050248258 0.027039662 0.1693617
-0.049934033 0.027056649 0.16946809
-0.049619365 0.027073633 0.16957447
-0.049273353 0.027073633 0.16957447
-0.048958037 0.027090617 0.16968085
-0.048642285 0.027107602 0.16978723
-0.048326105 0.027124587 0.16989362
-0.048009485 0.027141571 0.17
-0.047662605 0.027141571 0.17
-0.047315724 0.027141571 0.17
-0.046998236 0.027158557 0.17010638
-0.046767842 0.027226495 0.17053191
-0.046622586 0.027345389 0.1712766
-0.046474285 0.02746428 0.17202127
-0.046237379 0.02753222 0.1724468
-0.032522548 0.029451493 0.18446809
-0.032071993 0.029383555 0.18404256
-0.029739816 0.030062942 0.18829787
-0.029405357 0.030113896 0.18861702
-0.029085962 0.030181834 0.18904255
-0.028764831 0.030249774 0.18946809
-0.028394161 0.030266758 0.18957447
-0.028054493 0.030317713 0.18989362
-0.02772902 0.030385653 0.19031915
-0.02744766 0.030504545 0.19106384
-0.027178323 0.030640421 0.19191489
-0.026905514 0.0307763 0.19276595
-0.026599972 0.030878209 0.19340426
-0.026277408 0.030963132 0.19393617
-0.025938477 0.03103107 0.1943617
-0.02558383 0.031082025 0.19468085
-0.025227878 0.031132977 0.19499999
-0.024870627 0.031183932 0.19531915
-0.024512071 0.031234888 0.1956383
-0.024165327 0.031302828 0.19606383
-0.023816844 0.031370766 0.19648936
-0.023466626 0.031438705 0.1969149
-0.02311467 0.031506643 0.19734043
-0.022773221 0.031591568 0.19787234
-0.022417577 0.031659506 0.19829787
-0.022060195 0.031727444 0.19872341
-0.021712668 0.031812366 0.19925532
-0.021340221 0.031863321 0.19957447
-0.020977629 0.031931262 0.2
-0.0206133 0.031999201 0.20042554
-0.020257959 0.032084122 0.20095745
-0.019879434 0.032135077 0.2012766
-0.019509897 0.032203019 0.20170213
-0.019138621 0.032270957 0.20212767
-0.018775467 0.032355879 0.20265958
-0.018410139 0.032440804 0.20319149
-0.018042643 0.032525726 0.2037234
-0.017663771 0.032593664 0.20414893
-0.017283162 0.032661602 0.20457447
-0.016900817 0.032729544 0.205
-0.016516736 0.032797482 0.20542553
-0.016130917 0.03286542 0.20585106
-0.015751481 0.032950342 0.20638297
-0.015361972 0.033018284 0.20680851
-0.014978413 0.033103205 0.20734042
-0.014577745 0.03315416 0.20765957
-0.014168526 0.033188131 0.20787235
-0.01376547 0.033239082 0.20819148
-0.013381565 0.033340994 0.20882979
-0.013008253 0.033476871 0.20968086
-0.012625085 0.033595763 0.21042553
-0.012226548 0.033680689 0.21095745
-0.011802045 0.033697672 0.21106383
-0.011359912 0.033663701 0.21085106
-0.010924163 0.033646718 0.21074468
-0.066727556 0.028520558 0.17638297
-0.066327624 0.028503357 0.17627659
-0.065888323 0.028468953 0.17606384
-0.065449879 0.028434549 0.17585106
-0.065012306 0.028400145 0.1756383
-0.064536437 0.028348541 0.17531915
-0.064100817 0.028314136 0.17510638
-0.063704789 0.028296934 0.175
-0.063232183 0.028245328 0.17468084
-0.062760882 0.028193725 0.17436171
-0.062176645 0.028090512 0.1737234
-0.061632879 0.028004505 0.17319149
-0.061091285 0.027918495 0.17265958
-0.060589284 0.027849689 0.17223404
-0.060126223 0.027798083 0.17191489
-0.059627477 0.027729275 0.17148936
-0.059093695 0.027643267 0.17095745
-0.058488972 0.027522855 0.17021276
-0.057850949 0.027385239 0.1693617
-0.057216406 0.027247626 0.16851065
-0.056657135 0.027144415 0.16787234
-0.056171849 0.027075607 0.16744681
-0.055688299 0.027006801 0.16702127
-0.055206485 0.026937993 0.16659574
-0.054796483 0.02690359 0.16638298
-0.054352526 0.026851986 0.16606383
-0.054013677 0.026851986 0.16606383
-0.05381237 0.026920792 0.16648936
-0.053711828 0.027041206 0.16723405
-0.053744048 0.027230423 0.16840425
-0.053704027 0.027385239 0.1693617
-0.053593069 0.027505653 0.17010638
-0.053379171 0.027574459 0.17053191
-0.052998126 0.027557258 0.17042553
-0.052584644 0.027522855 0.17021276
-0.052106738 0.027454047 0.16978723
-0.051663 0.027402442 0.16946809
-0.051220562 0.027350837 0.16914894
-0.050843425 0.027333636 0.16904256
-0.050466716 0.027316432 0.16893616
-0.050153572 0.027333636 0.16904256
-0.049839992 0.027350837 0.16914894
-0.049525976 0.027368039 0.16925532
-0.049180619 0.027368039 0.16925532
-0.048835259 0.027368039 0.16925532
-0.048520375 0.027385239 0.1693617
-0.048235323 0.027419643 0.16957447
-0.047919352 0.027436845 0.16968085
-0.047602952 0.027454047 0.16978723
-0.047286119 0.02747125 0.16989362
-0.046968848 0.027488451 0.17
-0.046709493 0.027540058 0.17031915
-0.046564668 0.027660469 0.17106383
-0.046445545 0.027798083 0.17191489
-0.046208855 0.027866891 0.17234042
-0.028023057 0.030670781 0.18968084
-0.02769802 0.030739587 0.19010638
-0.027432375 0.030877201 0.19095744
-0.027178323 0.031032017 0.19191489
-0.026905514 0.031169632 0.19276595
-0.026599972 0.031272843 0.19340426
-0.026277408 0.031358853 0.19393617
-0.025938477 0.031427659 0.1943617
-0.02558383 0.031479266 0.19468085
-0.025241643 0.031548072 0.19510639
-0.024897719 0.031616881 0.19553192
-0.024552058 0.031685688 0.19595745
-0.024217773 0.031771697 0.19648936
-0.023868423 0.031840503 0.1969149
-0.02350466 0.03189211 0.19723405
-0.023152053 0.031960916 0.19765958
-0.022785464 0.032012518 0.19797872
-0.022429602 0.032081328 0.19840425
-0.022072002 0.032150134 0.19882978
-0.021724259 0.032236144 0.1993617
-0.02136297 0.03230495 0.19978723
-0.020988787 0.032356557 0.20010638
-0.020624241 0.032425363 0.20053191
-0.020257959 0.032494169 0.20095745
-0.019889941 0.032562979 0.20138298
-0.019509897 0.032614585 0.20170213
-0.019138621 0.032683391 0.20212767
-0.01876561 0.032752197 0.2025532
-0.018400501 0.032838207 0.20308511
-0.0180238 0.032907013 0.20351064
-0.017645363 0.032975819 0.20393617
-0.017274175 0.033061828 0.20446809
-0.016892046 0.033130635 0.20489362
-0.016516736 0.033216644 0.20542553
-0.016130917 0.033285454 0.20585106
-0.015751481 0.03337146 0.20638297
-0.015369874 0.033457469 0.20691489
-0.014993783 0.033560682 0.20755319
-0.01460015 0.033629488 0.20797873
-0.01419753 0.033681095 0.20829788
-0.013786573 0.033715498 0.20851064
-0.013395198 0.033801503 0.20904255
-0.013008253 0.033904716 0.20968086
-0.012618703 0.034007926 0.21031915
-0.012220382 0.034093935 0.21085106
-0.011790147 0.034093935 0.21085106
-0.011359912 0.034093935 0.21085106
-0.010924163 0.034076735 0.21074468
-0.010499444 0.034093935 0.21085106
-0.010094611 0.034179945 0.21138299
-0.0096973339 0.034300357 0.21212766
-0.070207492 0.029281095 0.17882979
-0.070050329 0.02936819 0.1793617
-0.069725677 0.029385608 0.17946808
-0.069236144 0.029333353 0.17914894
-0.068584315 0.029211421 0.17840426
-0.067894846 0.029072069 0.17755319
-0.067249313 0.028950136 0.17680851
-0.066687316 0.028863043 0.17627659
-0.066207543 0.028810786 0.17595744
-0.065768883 0.028775949 0.17574468
-0.065331094 0.02874111 0.17553191
-0.064854793 0.028688855 0.17521277
-0.064379796 0.028636597 0.17489362
-0.063867159 0.028566923 0.17446809
-0.063394979 0.028514665 0.17414893
-0.062924109 0.02846241 0.17382979
-0.06245454 0.028410153 0.17351064
-0.061948199 0.028340477 0.17308511
-0.061405733 0.028253384 0.1725532
-0.06090308 0.028183708 0.17212766
-0.060402166 0.028114032 0.17170213
-0.059902985 0.028044358 0.1712766
-0.059405539 0.027974682 0.17085107
-0.058909833 0.027905006 0.17042553
-0.058342751 0.027800491 0.16978723
-0.057705596 0.027661141 0.16893616
-0.057108041 0.02753921 0.16819149
-0.056549422 0.027434696 0.16755319
-0.056064788 0.02736502 0.16712765
-0.055617362 0.027312765 0.16680852
-0.055171233 0.027260508 0.16648936
-0.054761443 0.027225669 0.16627659
-0.054352526 0.027190832 0.16606383
-0.053979076 0.027173415 0.16595745
-0.053709213 0.027208252 0.16617021
-0.053677659 0.02736502 0.16712765
-0.053710099 0.027556628 0.16829787
-0.0537715 0.027765656 0.16957447
-0.053693619 0.027905006 0.17042553
-0.053445771 0.027957262 0.17074469
-0.053064287 0.027939843 0.17063829
-0.052617513 0.027887588 0.17031915
-0.052106738 0.027800491 0.16978723
-0.051630568 0.027730817 0.1693617
-0.051156133 0.027661141 0.16893616
-0.050715435 0.027608886 0.16861703
-0.050371379 0.027608886 0.16861703
-0.050058883 0.027626304 0.1687234
-0.049777299 0.027661141 0.16893616
-0.049432591 0.027661141 0.16893616
-0.049087882 0.027661141 0.16893616
-0.048743173 0.027661141 0.16893616
-0.048459422 0.02769598 0.16914894
-0.048174798 0.027730817 0.1693617
-0.047889311 0.027765656 0.16957447
-0.047573123 0.027783073 0.16968085
-0.047256507 0.027800491 0.16978723
-0.046939455 0.027817912 0.16989362
-0.04665114 0.027852749 0.17010638
-0.046448834 0.027939843 0.17063829
-0.046273101 0.028044358 0.1712766
-0.046037715 0.028114032 0.17170213
-0.02562701 0.032433908 0.1980851
-0.02389767 0.032834541 0.20053191
-0.023326503 0.032608096 0.19914894
-0.022846682 0.032503583 0.19851063
-0.022453656 0.032521002 0.19861703
-0.022095622 0.03259068 0.19904256
-0.021747446 0.032677773 0.19957447
-0.021385722 0.032747447 0.2
-0.021022262 0.032817122 0.20042554
-0.020646123 0.03286938 0.20074467
-0.020268682 0.032921635 0.20106383
-0.019889941 0.032973893 0.20138298
-0.019520186 0.033043567 0.20180851
-0.019148694 0.033113245 0.20223404
-0.018775467 0.033182919 0.20265958
-0.018400501 0.033252593 0.20308511
-0.0180238 0.033322271 0.20351064
-0.017645363 0.033391945 0.20393617
-0.017274175 0.033479039 0.20446809
-0.016892046 0.033548716 0.20489362
-0.016516736 0.03363581 0.20542553
-0.016130917 0.033705484 0.20585106
-0.015751481 0.033792578 0.20638297
-0.015377778 0.033897091 0.20702128
-0.015001468 0.034001604 0.20765957
-0.014615086 0.034088697 0.20819148
-0.014212032 0.034140956 0.20851064
-0.013807675 0.034193214 0.20882979
-0.013408832 0.034262888 0.20925532
-0.013014853 0.034349982 0.20978723
-0.01261232 0.034419656 0.21021277
-0.01220805 0.034489334 0.2106383
-0.011784199 0.034506753 0.21074468
-0.01134845 0.034489334 0.2106383
-0.01091865 0.034489334 0.2106383
-0.010504741 0.034541592 0.21095745
-0.010104772 0.034646101 0.21159574
-0.0097070606 0.034768034 0.21234043
-0.0093063097 0.034889966 0.2130851
-0.0089202374 0.035081573 0.21425532
-0.0085378131 0.035308018 0.21563829
-0.0081377598 0.035482209 0.21670213
-0.0077258102 0.035621561 0.2175532
-0.007299704 0.035708655 0.21808511
-0.0068680835 0.035778329 0.21851064
-0.070404455 0.029575448 0.17840426
-0.070165724 0.029628357 0.17872341
-0.06996724 0.029698901 0.17914894
-0.069684349 0.02973417 0.1793617
-0.069195025 0.029681262 0.17904255
-0.068584315 0.029575448 0.17840426
-0.067935526 0.029451996 0.17765957
-0.067289785 0.029328546 0.1769149
-0.066687316 0.029222729 0.17627659
-0.066167511 0.029152185 0.17585106
-0.065729074 0.029116914 0.1756383
-0.065251902 0.029064005 0.17531915
-0.064776041 0.029011097 0.175
-0.064262316 0.028940555 0.17457446
-0.063711382 0.028852375 0.17404255
-0.063201353 0.028781831 0.17361702
-0.062731564 0.028728923 0.17329787
-0.062301371 0.028693652 0.17308511
-0.061795898 0.028623108 0.17265958
-0.061292157 0.028552564 0.17223404
-0.060827795 0.028499655 0.17191489
-0.060327314 0.028429111 0.17148936
-0.059828568 0.028358568 0.17106383
-0.059331559 0.028288024 0.17063829
-0.058836285 0.028217481 0.17021276
-0.058269642 0.028111666 0.16957447
-0.05766926 0.027988214 0.16882978
-0.05707192 0.027864764 0.16808511
-0.056513518 0.027758947 0.16744681
-0.055993415 0.027670767 0.1669149
-0.055546418 0.027617859 0.16659574
-0.055100724 0.02756495 0.16627659
-0.054726407 0.027547317 0.16617021
-0.054317705 0.027512046 0.16595745
-0.053909868 0.027476773 0.16574468
-0.053640444 0.027512046 0.16595745
-0.053575158 0.027653133 0.16680852
-0.053608246 0.027847126 0.16797872
-0.053670295 0.028058758 0.16925532
-0.053660106 0.028235119 0.17031915
-0.053479072 0.028323298 0.17085107
-0.053130455 0.028323298 0.17085107
-0.052683242 0.02827039 0.17053191
-0.052172035 0.02818221 0.17
-0.051630568 0.028076394 0.1693617
-0.051123921 0.027988214 0.16882978
-0.050683439 0.027935307 0.16851065
-0.050307818 0.02791767 0.16840425
-0.049995761 0.027935307 0.16851065
-0.04971461 0.027970579 0.1687234
-0.049370334 0.027970579 0.1687234
-0.04905697 0.027988214 0.16882978
-0.048712481 0.027988214 0.16882978
-0.048398465 0.02800585 0.16893616
-0.048114277 0.028041122 0.16914894
-0.047859266 0.028094031 0.16946809
-0.047573123 0.028129302 0.16968085
-0.047226898 0.028129302 0.16968085
-0.046910059 0.028146937 0.16978723
-0.046563614 0.028146937 0.16978723
-0.046304043 0.028199846 0.17010638
-0.046071913 0.02827039 0.17053191
-0.045809522 0.028323298 0.17085107
-0.023725247 0.033578806 0.2025532
-0.02293239 0.033032089 0.19925532
-0.022477709 0.032961544 0.19882978
-0.02213105 0.033049725 0.1993617
-0.021782223 0.033137906 0.19989362
-0.021419849 0.033208448 0.20031916
-0.021044578 0.033261355 0.20063829
-0.020668006 0.033314265 0.20095745
-0.020279408 0.033349536 0.20117021
-0.019900447 0.033402443 0.20148936
-0.019530475 0.033472989 0.20191489
-0.019168839 0.033561166 0.2024468
-0.018795177 0.033631708 0.20287234
-0.018419778 0.033702254 0.20329787
-0.018033221 0.033755161 0.20361702
-0.017654566 0.033825707 0.20404255
-0.017283162 0.033913884 0.20457447
-0.016900817 0.03398443 0.205
-0.016516736 0.034054972 0.20542553
-0.016130917 0.034125518 0.20585106
-0.015751481 0.034213696 0.20638297
-0.015377778 0.034319513 0.20702128
-0.015001468 0.034425326 0.20765957
-0.014622555 0.034531143 0.20829788
-0.014219282 0.034584049 0.20861702
-0.013821742 0.034654595 0.20904255
-0.013415649 0.034707502 0.2093617
-0.013008253 0.034760412 0.20968086
-0.012605937 0.034830954 0.21010639
-0.012195718 0.03488386 0.21042553
-0.011772302 0.0349015 0.21053192
-0.01134845 0.034919135 0.2106383
-0.010929678 0.034954403 0.21085106
-0.010520633 0.035024948 0.21127659
-0.010120013 0.035130765 0.2119149
-0.0097216498 0.035254214 0.21265957
-0.0093248943 0.035395302 0.21351063
-0.008937954 0.0355893 0.21468085
-0.0085420245 0.035765655 0.21574467
-0.0081417551 0.035942018 0.21680851
-0.0077258102 0.03606547 0.2175532
-0.007299704 0.036153648 0.21808511
-0.0068714274 0.036241829 0.21861702
-0.0064378534 0.036312371 0.21904255
-0.0060083619 0.036418185 0.21968085
-0.0055681881 0.036471095 0.22
-0.0051242369 0.036506366 0.22021277
-0.0046748999 0.036506366 0.22021277
-0.0042357696 0.036594547 0.22074468
-0.071726337 0.030189417 0.17989361
-0.071063884 0.030064447 0.17914894
-0.070572384 0.030010888 0.17882979
-0.070207492 0.030010888 0.17882979
-0.06996724 0.030064447 0.17914894
-0.069643021 0.0300823 0.17925532
-0.069195025 0.030046593 0.17904255
-0.068625212 0.029957328 0.17851064
-0.068016887 0.029850211 0.17787234
-0.067370705 0.029725241 0.17712766
-0.066767812 0.029618124 0.17648937
-0.066207543 0.029528856 0.17595744
-0.065729074 0.029475298 0.1756383
-0.065251902 0.029421739 0.17531915
-0.064736664 0.029350327 0.17489362
-0.064183995 0.029261062 0.17436171
-0.06359455 0.029153943 0.1737234
-0.063123904 0.029100386 0.17340426
-0.062654547 0.029046826 0.17308511
-0.062186494 0.028993266 0.17276596
-0.061719745 0.028939707 0.1724468
-0.0612543 0.028886149 0.17212766
-0.060752518 0.028814737 0.17170213
-0.06028989 0.028761178 0.17138298
-0.059791364 0.028689766 0.17095745
-0.059331559 0.028636206 0.17063829
-0.058799516 0.028546942 0.17010638
-0.058269642 0.028457677 0.16957447
-0.05766926 0.028332705 0.16882978
-0.057035796 0.028189881 0.16797872
-0.056441713 0.028064912 0.16723405
-0.055922039 0.027975645 0.16670212
-0.055440005 0.027904233 0.16627659
-0.055030219 0.027868528 0.16606383
-0.054621298 0.027832821 0.16585106
-0.054248065 0.027814968 0.16574468
-0.053875268 0.027797116 0.1656383
-0.053606056 0.027832821 0.16585106
-0.053506821 0.027957793 0.16659574
-0.053506397 0.028136324 0.16765958
-0.053535361 0.028332705 0.16882978
-0.053526036 0.028511237 0.16989362
-0.053412471 0.028636206 0.17063829
-0.053163536 0.028689766 0.17095745
-0.052781839 0.028671913 0.17085107
-0.052302629 0.028600501 0.17042553
-0.051760294 0.028493382 0.16978723
-0.051220562 0.028386265 0.16914894
-0.050747432 0.028314853 0.1687234
-0.050339602 0.028279148 0.16851065
-0.049995761 0.028279148 0.16851065
-0.04971461 0.028314853 0.1687234
-0.049370334 0.028314853 0.1687234
-0.049026061 0.028314853 0.1687234
-0.048681784 0.028314853 0.1687234
-0.048367988 0.028332705 0.16882978
-0.048084021 0.028368413 0.16904256
-0.047829222 0.02842197 0.1693617
-0.047543298 0.028457677 0.16957447
-0.04719729 0.028457677 0.16957447
-0.046851277 0.028457677 0.16957447
-0.046534441 0.028475529 0.16968085
-0.04624613 0.028511237 0.16989362
-0.045956951 0.028546942 0.17010638
-0.045638375 0.028564794 0.17021276
-0.022501763 0.033402957 0.19904256
-0.02215467 0.033492222 0.19957447
-0.021805407 0.033581488 0.20010638
-0.021442598 0.033652898 0.20053191
-0.021066895 0.03370646 0.20085107
-0.020678947 0.033742163 0.20106383
-0.020290133 0.03377787 0.2012766
-0.019900447 0.033813577 0.20148936
-0.019540764 0.033902839 0.20202127
-0.019188985 0.03400996 0.20265958
-0.018824745 0.034099225 0.20319149
-0.018439056 0.034152783 0.20351064
-0.018061487 0.034224197 0.20393617
-0.01768218 0.034295607 0.20436171
-0.017301138 0.034367021 0.20478724
-0.016918359 0.034438431 0.20521277
-0.016516736 0.034474138 0.20542553
-0.016122581 0.034527697 0.20574468
-0.015743362 0.034616962 0.2062766
-0.015369874 0.034724079 0.20691489
-0.015001468 0.034849048 0.20765957
-0.014615086 0.034938313 0.20819148
-0.014219282 0.035009727 0.20861702
-0.013814708 0.035063285 0.20893617
-0.013415649 0.035134699 0.2093617
-0.013008253 0.035188258 0.20968086
-0.012599554 0.035241816 0.20999999
-0.012183388 0.035277523 0.21021277
-0.011772302 0.035331082 0.21053192
-0.011359912 0.03538464 0.21085106
-0.010946222 0.035438199 0.21117021
-0.010541823 0.035527464 0.21170212
-0.010140334 0.035634581 0.21234043
-0.0097411023 0.035759553 0.2130851
-0.0093434788 0.035902377 0.21393616
-0.0089468118 0.036063056 0.21489362
-0.0085462369 0.036223732 0.21585107
-0.0081417551 0.036384407 0.21680851
-0.0077220318 0.036491524 0.2174468
-0.007299704 0.036598645 0.21808511
-0.0068747709 0.036705762 0.2187234
-0.0064472337 0.036812879 0.21936171
-0.0060141813 0.036902145 0.21989362
-0.0055735735 0.036955703 0.22021277
-0.0051291874 0.03699141 0.22042553
-0.0046839337 0.037027117 0.2206383
-0.004243935 0.037116382 0.22117022
-0.0038035903 0.037223499 0.22180851
-0.0033702836 0.037437733 0.22308511
-0.0029317676 0.037651971 0.2243617
-0.0024833493 0.037794795 0.22521277
-0.0020257221 0.037830498 0.22542553
-0.074497089 0.030791394 0.18127659
-0.0739967 0.030737186 0.18095745
-0.073540889 0.030701045 0.18074468
-0.073258221 0.030737186 0.18095745
-0.072888985 0.030737186 0.18095745
-0.072391845 0.030682975 0.1806383
-0.071853593 0.030610695 0.18021277
-0.071317077 0.030538414 0.17978723
-0.070824273 0.030484203 0.17946808
-0.070416316 0.030466134 0.1793617
-0.070050329 0.030466134 0.1793617
-0.069601692 0.030429995 0.17914894
-0.0691128 0.030375784 0.17882979
-0.068584315 0.030303504 0.17840426
-0.067976207 0.030195082 0.17776595
-0.067370705 0.030086663 0.17712766
-0.066808052 0.029996313 0.17659575
-0.0662876 0.029924033 0.17617022
-0.065768883 0.029851751 0.17574468
-0.065291494 0.029797541 0.17542553
-0.064736664 0.029707192 0.17489362
-0.064183995 0.029616842 0.17436171
-0.063633502 0.029526493 0.17382979
-0.063085169 0.029436139 0.17329787
-0.062616035 0.029381931 0.17297873
-0.062148202 0.02932772 0.17265958
-0.061681669 0.02927351 0.17234042
-0.061178584 0.029201228 0.17191489
-0.060714871 0.029147018 0.17159574
-0.060252469 0.029092809 0.1712766
-0.059754156 0.029020529 0.17085107
-0.05929457 0.028966319 0.17053191
-0.058762744 0.028875969 0.17
-0.058233086 0.028785618 0.16946809
-0.057632923 0.028659128 0.1687234
-0.056999676 0.028514566 0.16787234
-0.056405805 0.028388076 0.16712765
-0.055850666 0.028279657 0.16648936
-0.055369068 0.028207377 0.16606383
-0.054959711 0.028171234 0.16585106
-0.054551229 0.028135095 0.1656383
-0.054178432 0.028117025 0.16553192
-0.053840667 0.028117025 0.16553192
-0.053571675 0.028153164 0.16574468
-0.053438485 0.028261587 0.16638298
-0.053370595 0.028406147 0.16723405
-0.053366695 0.028586848 0.16829787
-0.053358451 0.028767547 0.1693617
-0.053245973 0.028894039 0.17010638
-0.053064287 0.028984388 0.17063829
-0.052781839 0.029020529 0.17085107
-0.052335277 0.028966319 0.17053191
-0.051857587 0.028894039 0.17010638
-0.051317208 0.028785618 0.16946809
-0.050811425 0.028695267 0.16893616
-0.050371379 0.028641058 0.16861703
-0.050027322 0.028641058 0.16861703
-0.04971461 0.028659128 0.1687234
-0.049370334 0.028659128 0.1687234
-0.049026061 0.028659128 0.1687234
-0.048681784 0.028659128 0.1687234
-0.048367988 0.028677197 0.16882978
-0.048084021 0.028713338 0.16904256
-0.047799177 0.028749477 0.16925532
-0.047513474 0.028785618 0.16946809
-0.047167681 0.028785618 0.16946809
-0.046851277 0.028803688 0.16957447
-0.046534441 0.028821757 0.16968085
-0.04621717 0.028839827 0.16978723
-0.045899469 0.0288579 0.16989362
-0.04558133 0.028875969 0.17
-0.021805407 0.033989798 0.20010638
-0.021453973 0.034080148 0.20063829
-0.021078054 0.034134358 0.20095745
-0.020678947 0.034152426 0.20106383
-0.020290133 0.034188569 0.2012766
-0.019910954 0.034242779 0.20159574
-0.019561347 0.0343512 0.20223404
-0.019209132 0.034459617 0.20287234
-0.018844457 0.03454997 0.20340426
-0.018467972 0.034622248 0.20382978
-0.01808033 0.034676459 0.20414893
-0.01770059 0.03474874 0.20457447
-0.017310126 0.034802951 0.20489362
-0.016918359 0.034857161 0.20521277
-0.016516736 0.0348933 0.20542553
-0.016122581 0.034947511 0.20574468
-0.015735243 0.035019793 0.20617022
-0.015369874 0.035146281 0.20691489
-0.014993783 0.035254702 0.20755319
-0.014607619 0.035345051 0.2080851
-0.014212032 0.035417333 0.20851064
-0.013807675 0.035471544 0.20882979
-0.013402016 0.035525754 0.20914894
-0.013001652 0.035598032 0.20957446
-0.012593172 0.035652243 0.20989361
-0.012183388 0.035706453 0.21021277
-0.011784199 0.035796802 0.21074468
-0.011377107 0.035869084 0.21117021
-0.010973793 0.035959434 0.21170212
-0.010563012 0.036031716 0.21212766
-0.010155574 0.036122065 0.21265957
-0.00975083 0.036230486 0.21329787
-0.0093527716 0.036375046 0.21414894
-0.0089512412 0.036519606 0.215
-0.0085462369 0.036664169 0.21585107
-0.0081337644 0.036790658 0.21659574
-0.0077106985 0.036881011 0.21712767
-0.0072890213 0.036989428 0.21776596
-0.0068714274 0.037133988 0.21861702
-0.0064472337 0.03726048 0.21936171
-0.0060170908 0.037368901 0.22
-0.0055789584 0.037441179 0.22042553
-0.0051390897 0.037513461 0.22085106
-0.0046952255 0.037567671 0.22117022
-0.0042561828 0.037676092 0.22180851
-0.0038163601 0.037802581 0.22255319
-0.0033767126 0.037965212 0.22351064
-0.0029331576 0.038127843 0.22446808
-0.0024833493 0.038254332 0.22521277
-0.0020276343 0.038326614 0.2256383
-0.0015679657 0.038344685 0.22574468
-0.0011089067 0.038398895 0.22606383
-0.00064945966 0.038507313 0.22670212
-0.00018732004 0.038597662 0.22723404
0.00027673153 0.038651876 0.22755319
0.00074069976 0.038633805 0.22744681
-0.077070966 0.031764761 0.18478723
