# .PCD v0.7 - Point Cloud Data file format
VERSION 0.7
FIELDS x y z
SIZE 4 4 4
TYPE F F F
COUNT 1 1 1
WIDTH 1345
HEIGHT 1
VIEWPOINT 0 0 0 1 0 0 0
POINTS 1345
DATA ascii
-0.078929372 0.066440463 0.30361703
-0.078501925 0.066603422 0.3043617
-0.086585313 0.067717895 0.30659574
-0.085691273 0.067506418 0.30563828
-0.084771536 0.067271449 0.30457446
-0.083767965 0.066965997 0.30319148
-0.082799211 0.066684037 0.3019149
-0.081980452 0.066519551 0.3011702
-0.081337191 0.066496059 0.30106384
-0.080836974 0.066590041 0.30148935
-0.08041995 0.066754527 0.30223405
-0.079999872 0.066918999 0.30297872
-0.079604641 0.067106977 0.30382979
-0.07920593 0.067294955 0.30468085
-0.078803748 0.067482926 0.30553192
-0.087089874 0.068248637 0.30617023
-0.086314917 0.068130061 0.30563828
-0.085363194 0.067869216 0.3044681
-0.08447545 0.067655787 0.30351064
-0.08350344 0.067371227 0.30223405
-0.082565814 0.067110367 0.30106384
-0.081777751 0.066968083 0.30042553
-0.081222221 0.067015514 0.30063829
-0.080836974 0.06720522 0.30148935
-0.080533169 0.06746608 0.30265957
-0.080224596 0.067726932 0.30382979
-0.079855494 0.067940362 0.30478725
-0.079427175 0.068106353 0.30553192
-0.078995816 0.068272352 0.30627659
-0.078452535 0.06834349 0.30659574
-0.087226965 0.068490475 0.3044681
-0.086605705 0.068490475 0.3044681
-0.085834235 0.068370819 0.30393618
-0.08488597 0.068107575 0.30276597
-0.084001698 0.067892194 0.30180851
-0.083091944 0.067652889 0.30074468
-0.082274064 0.06748537 0.30000001
-0.081603996 0.067437507 0.29978722
-0.081135996 0.067557156 0.30031914
-0.080836974 0.0678204 0.30148935
-0.080646403 0.068179369 0.30308512
-0.080393136 0.068490475 0.3044681
-0.079994857 0.068681918 0.30531916
-0.079510145 0.068801574 0.30585107
-0.078995816 0.068897299 0.30627659
-0.078398094 0.068921231 0.30638298
-0.087295704 0.06867706 0.30255318
-0.086739317 0.068725362 0.30276597
-0.086121537 0.068725362 0.30276597
-0.085263401 0.068532176 0.3019149
-0.084349096 0.068290696 0.30085108
-0.083498344 0.068097509 0.30000001
-0.082680449 0.067928471 0.29925531
-0.081982307 0.067856029 0.29893616
-0.081401296 0.067880176 0.29904255
-0.081021041 0.068073362 0.29989362
-0.080808453 0.06841144 0.30138299
-0.080703013 0.068846099 0.30329788
-0.080449313 0.069160022 0.30468085
-0.08002273 0.069329061 0.30542552
-0.079454824 0.069377355 0.30563828
-0.078831181 0.069377355 0.30563828
-0.078180321 0.069353208 0.30553192
-0.087202087 0.068734013 0.30010638
-0.086804599 0.068904571 0.30085108
-0.086282149 0.068977661 0.3011702
-0.085607104 0.068928935 0.30095744
-0.084812745 0.068782739 0.30031914
-0.083931521 0.068563461 0.29936171
-0.083143026 0.068417266 0.2987234
-0.082415923 0.068319812 0.29829788
-0.081807256 0.068319812 0.29829788
-0.081285469 0.06839291 0.29861704
-0.080963559 0.068636559 0.29968086
-0.080779925 0.069002032 0.30127659
-0.080674708 0.069440603 0.30319148
-0.080421217 0.06975735 0.30457446
-0.079966985 0.069903538 0.30521277
-0.0792889 0.069854811 0.30500001
-0.078556798 0.06975735 0.30457446
-0.077880882 0.069708623 0.3043617
-0.087472029 0.069075964 0.29893616
-0.086954795 0.06914971 0.29925531
-0.086436257 0.069223464 0.29957446
-0.085885942 0.069272622 0.29978722
-0.085213713 0.069223464 0.29957446
-0.084452227 0.069100551 0.29904255
-0.083633259 0.06892848 0.29829788
-0.082876548 0.068805568 0.29776597
-0.082239568 0.068780981 0.29765958
-0.081690557 0.068830147 0.29787233
-0.081227548 0.068953052 0.29840425
-0.080906071 0.069198877 0.29946807
-0.080722883 0.069567613 0.30106384
-0.080589786 0.069985509 0.30287233
-0.080280773 0.070255913 0.30404255
-0.079771876 0.070354246 0.3044681
-0.079039998 0.070255913 0.30404255
-0.078337289 0.070182167 0.30372339
-0.088081993 0.069685936 0.29893616
-0.087440901 0.06966114 0.29882979
-0.086831152 0.06966114 0.29882979
-0.086252086 0.069685936 0.29893616
-0.085642122 0.069685936 0.29893616
-0.084971629 0.069636337 0.2987234
-0.08418183 0.069487542 0.29808509
-0.083424471 0.069363542 0.29755318
-0.082698889 0.069264352 0.29712766
-0.082063213 0.069239549 0.29702127
-0.081544675 0.069313951 0.29734042
-0.081111714 0.069462746 0.29797873
-0.080791108 0.069710739 0.29904255
-0.080608778 0.070082724 0.30063829
-0.08041995 0.070454717 0.30223405
-0.080084145 0.070702709 0.30329788
-0.079521023 0.070752308 0.30351064
-0.078791097 0.070653111 0.30308512
-0.078090347 0.070578709 0.30276597
-0.089301936 0.0702959 0.29893616
-0.088723533 0.070320919 0.29904255
-0.088113345 0.070320919 0.29904255
-0.087440901 0.070270889 0.29882979
-0.086769328 0.070220858 0.29861704
-0.086129315 0.070195839 0.29851064
-0.085489735 0.07017082 0.29840425
-0.084790066 0.07009577 0.29808509
-0.084031619 0.06997069 0.29755318
-0.083245516 0.069820598 0.29691491
-0.08252123 0.069720529 0.29648936
-0.08194565 0.069745548 0.29659575
-0.0813988 0.069795579 0.29680851
-0.080966927 0.069945678 0.29744682
-0.080647402 0.070195839 0.29851064
-0.080409117 0.070521057 0.29989362
-0.080165185 0.070846267 0.30127659
-0.079803251 0.071071416 0.30223405
-0.079242297 0.071121447 0.30244681
-0.078542195 0.071046397 0.30212766
-0.077843398 0.070971347 0.30180851
-0.092688613 0.071637638 0.30202127
-0.091748036 0.071385309 0.30095744
-0.090876229 0.071183443 0.30010638
-0.090039894 0.071006812 0.29936171
-0.089301936 0.070905872 0.29893616
-0.088691965 0.070905872 0.29893616
-0.088113345 0.070931107 0.29904255
-0.087472029 0.070905872 0.29893616
-0.086831152 0.070880644 0.29882979
-0.086160012 0.070830181 0.29861704
-0.085459262 0.070754476 0.29829788
-0.084729545 0.070653543 0.29787233
-0.083941482 0.07050214 0.29723403
-0.083156034 0.070350744 0.29659575
-0.082462013 0.070275038 0.2962766
-0.081886865 0.070300274 0.29638299
-0.081369624 0.070375971 0.29670212
-0.080909006 0.07050214 0.29723403
-0.080532439 0.070704006 0.29808509
-0.08023797 0.070981577 0.29925531
-0.079938725 0.071259141 0.30042553
-0.079578526 0.07148625 0.30138299
-0.079047188 0.071561947 0.30170214
-0.078376256 0.071511477 0.30148935
-0.077706203 0.071461007 0.30127659
-0.09906289 0.073322825 0.30648935
-0.098335013 0.073246479 0.30617023
-0.097778186 0.073297381 0.30638298
-0.097287953 0.073399179 0.3068085
-0.096728958 0.073450081 0.30702129
-0.095902696 0.073297381 0.30638298
-0.094814368 0.072941072 0.30489361
-0.093732126 0.072584763 0.30340424
-0.092753917 0.072304815 0.30223405
-0.091812901 0.072050303 0.3011702
-0.090940654 0.071846701 0.30031914
-0.090135887 0.071694002 0.29968086
-0.089365505 0.071566746 0.29914895
-0.088723533 0.071541294 0.29904255
-0.088144697 0.071566746 0.29914895
-0.087565415 0.071592197 0.29925531
-0.08692389 0.071566746 0.29914895
-0.086252086 0.071515843 0.29893616
-0.085520215 0.071414046 0.29851064
-0.084759809 0.07128679 0.29797873
-0.083941482 0.071108632 0.29723403
-0.083156034 0.07095594 0.29659575
-0.08252123 0.070930481 0.29648936
-0.081975035 0.070981383 0.29670212
-0.081515498 0.071108632 0.29723403
-0.08102484 0.071210437 0.29765958
-0.080589928 0.071363144 0.29829788
-0.080209449 0.071566746 0.29914895
-0.079853803 0.071795799 0.30010638
-0.079466164 0.071999401 0.30095744
-0.07896357 0.072101206 0.30138299
-0.078348607 0.072101206 0.30138299
-0.077678762 0.072050303 0.3011702
-0.10928841 0.076283954 0.31617022
-0.10871638 0.076335289 0.31638297
-0.10803448 0.076309629 0.31627661
-0.10069667 0.074230552 0.30765957
-0.099826686 0.074050881 0.3069149
-0.099028513 0.073922545 0.30638298
-0.098300844 0.073845543 0.30606383
-0.097710289 0.07387121 0.30617023
-0.097186752 0.073948205 0.30648935
-0.096628405 0.073999546 0.30670214
-0.095869392 0.07389687 0.30627659
-0.094979785 0.073691532 0.30542552
-0.093962193 0.073383525 0.30414894
-0.092982449 0.073101178 0.30297872
-0.092007488 0.072818838 0.30180851
-0.091133945 0.072613493 0.30095744
-0.090295874 0.072433829 0.30021277
-0.089524403 0.072305486 0.29968086
-0.088818222 0.072228484 0.29936171
-0.088207386 0.072228484 0.29936171
-0.087627672 0.072254151 0.29946807
-0.086985707 0.072228484 0.29936171
-0.086313486 0.072177149 0.29914895
-0.085581169 0.07207448 0.2987234
-0.084790066 0.071920469 0.29808509
-0.08397153 0.071740799 0.29734042
-0.083215684 0.071612462 0.29680851
-0.082610056 0.071612462 0.29680851
-0.082151391 0.071740799 0.29734042
-0.081748903 0.071920469 0.29808509
-0.081285469 0.072048813 0.29861704
-0.080791108 0.072151482 0.29904255
-0.080352068 0.072305486 0.29968086
-0.079938725 0.072485156 0.30042553
-0.07949426 0.072639167 0.30106384
-0.078991435 0.072741836 0.30148935
-0.078403912 0.072767504 0.30159575
-0.077761076 0.072741836 0.30148935
-0.11258979 0.076980859 0.31638297
-0.1118313 0.076903202 0.31606382
-0.11099926 0.076773785 0.31553191
-0.11028102 0.076722018 0.31531915
-0.1097116 0.076773785 0.31553191
-0.10917809 0.076851435 0.31585106
-0.10860671 0.076903202 0.31606382
-0.10788912 0.076851435 0.31585106
-0.10695566 0.076644361 0.315
-0.10581025 0.076281972 0.31351063
-0.10449249 0.075790174 0.31148937
-0.10343126 0.075479552 0.31021276
-0.10244575 0.075220704 0.30914894
-0.1015697 0.075039521 0.30840427
-0.10073149 0.074884206 0.30776596
-0.099826686 0.074677132 0.3069149
-0.098994128 0.074521817 0.30627659
-0.098232515 0.074418284 0.30585107
-0.09754052 0.07436651 0.30563828
-0.096950613 0.074392401 0.30574468
-0.096360274 0.074418284 0.30585107
-0.095736198 0.074418284 0.30585107
-0.095012866 0.074340634 0.30553192
-0.094192244 0.074185319 0.30489361
-0.093243636 0.073926479 0.30382979
-0.09226694 0.073641747 0.30265957
-0.091327235 0.073382899 0.30159575
-0.09048786 0.073201708 0.30085108
-0.089746855 0.073098168 0.30042553
-0.089007601 0.072994635 0.30000001
-0.088332765 0.07294286 0.29978722
-0.087689936 0.072916977 0.29968086
-0.087016612 0.072865203 0.29946807
-0.086313486 0.072787553 0.29914895
-0.085581169 0.072684012 0.2987234
-0.084790066 0.072528705 0.29808509
-0.084001578 0.072373398 0.29744682
-0.083305165 0.072295748 0.29712766
-0.08272849 0.072321624 0.29723403
-0.082327746 0.072502822 0.29797873
-0.081953131 0.072709903 0.29882979
-0.081546083 0.072891094 0.29957446
-0.081078522 0.07302051 0.30010638
-0.080608778 0.073149934 0.30063829
-0.080165185 0.073305242 0.30127659
-0.079690889 0.073434666 0.30180851
-0.079158671 0.073512323 0.30212766
-0.078569852 0.073538207 0.30223405
-0.077925712 0.073512323 0.30212766
-0.077282004 0.073486432 0.30202127
-0.11606277 0.078226767 0.31882977
-0.11521967 0.078096256 0.31829786
-0.11426385 0.077887446 0.3174468
-0.11342574 0.077756934 0.31691489
-0.11262766 0.077652536 0.31648937
-0.1118313 0.077548124 0.31606382
-0.11096185 0.07739152 0.31542554
-0.1101694 0.077287108 0.315
-0.10956365 0.077313215 0.31510639
-0.10899422 0.077365413 0.31531915
-0.10838739 0.07739152 0.31542554
-0.10763475 0.077313215 0.31510639
-0.10663056 0.077052191 0.31404254
-0.10552302 0.076712869 0.31265956
-0.10442111 0.076373547 0.31127658
-0.1033958 0.076086432 0.3101064
-0.10248101 0.075877622 0.30925533
-0.10160472 0.075694904 0.30851063
-0.10073149 0.075512193 0.30776596
-0.099861294 0.075329483 0.30702129
-0.098994128 0.075146765 0.30627659
-0.098164171 0.074990153 0.30563828
-0.097404726 0.074885756 0.30521277
-0.096680745 0.074807443 0.30489361
-0.096025109 0.074781351 0.30478725
-0.095503092 0.074859649 0.30510637
-0.095012866 0.074964061 0.30553192
-0.094356574 0.074937955 0.30542552
-0.09353748 0.074781351 0.30478725
-0.092526391 0.074468128 0.30351064
-0.091552727 0.074181005 0.30234042
-0.090711839 0.073998295 0.30159575
-0.089937538 0.07386779 0.30106384
-0.089228541 0.073789485 0.30074468
-0.088489495 0.073685072 0.30031914
-0.087783322 0.073606774 0.30000001
-0.087047532 0.073502362 0.29957446
-0.086313486 0.073397957 0.29914895
-0.085550696 0.073267452 0.29861704
-0.08482033 0.07316304 0.29819149
-0.08406166 0.073032536 0.29765958
-0.083394647 0.072980329 0.29744682
-0.082846932 0.073032536 0.29765958
-0.082445316 0.073215239 0.29840425
-0.082069829 0.073424056 0.29925531
-0.081632964 0.073580667 0.29989362
-0.081222221 0.073763378 0.30063829
-0.080779925 0.073919989 0.30127659
-0.080363326 0.0741027 0.30202127
-0.079859428 0.074207112 0.30244681
-0.079298034 0.074259311 0.30265957
-0.078680471 0.074259311 0.30265957
-0.078035466 0.074233204 0.30255318
-0.077445336 0.074259311 0.30265957
-0.11602405 0.078851014 0.31872341
-0.11518116 0.078719422 0.3181915
-0.11437873 0.078614138 0.31776595
-0.11353996 0.078482546 0.31723404
-0.11270337 0.078350954 0.31670213
-0.11179367 0.078166723 0.31595746
-0.11088699 0.077982493 0.31521276
-0.11005778 0.077850901 0.31468084
-0.10941568 0.077850901 0.31468084
-0.10881037 0.077877216 0.31478724
-0.10816805 0.077877216 0.31478724
-0.10734405 0.077745624 0.31425533
-0.10634161 0.07748244 0.3131915
-0.10527169 0.077166609 0.31191489
-0.10424268 0.076877102 0.31074467
-0.10328939 0.076640241 0.30978724
-0.10244575 0.076482326 0.30914894
-0.10163976 0.076350734 0.30861703
-0.10076631 0.076166503 0.30787235
-0.099895887 0.075982265 0.30712765
-0.098994128 0.075771712 0.30627659
-0.09813001 0.075587489 0.30553192
-0.097268924 0.075403258 0.30478725
-0.096444614 0.075245343 0.30414894
-0.095756978 0.075192705 0.30393618
-0.09527 0.075297982 0.3043617
-0.094880536 0.075482205 0.30510637
-0.094389439 0.075587489 0.30553192
-0.093635418 0.075482205 0.30510637
-0.092623681 0.075166382 0.30382979
-0.091649376 0.074876875 0.30265957
-0.090807825 0.074692652 0.3019149
-0.090096444 0.07461369 0.30159575
-0.089386351 0.074534737 0.30127659
-0.088614881 0.074403144 0.30074468
-0.087814443 0.074245229 0.30010638
-0.087016612 0.074087314 0.29946807
-0.08628279 0.073982038 0.29904255
-0.085550696 0.073876768 0.29861704
-0.08482033 0.073771492 0.29819149
-0.084121749 0.07369253 0.29787233
-0.083454296 0.073639899 0.29765958
-0.082935765 0.073718853 0.29797873
-0.082504101 0.073876768 0.29861704
-0.082069829 0.074034676 0.29925531
-0.081603996 0.074166268 0.29978722
-0.081193484 0.074350506 0.30053192
-0.080808453 0.074561059 0.30138299
-0.08041995 0.074771605 0.30223405
-0.079915605 0.074876875 0.30265957
-0.079325914 0.074903198 0.30276597
-0.078708127 0.074903198 0.30276597
-0.078090347 0.074903198 0.30276597
-0.077527002 0.074955836 0.30297872
-0.07693579 0.074982159 0.30308512
-0.1159466 0.07944829 0.31851065
-0.11514265 0.079342142 0.3180851
-0.11441702 0.079289071 0.31787235
-0.11361611 0.079182923 0.3174468
-0.11274123 0.079023711 0.31680852
-0.11179367 0.078811429 0.31595746
-0.11084957 0.07859914 0.31510639
-0.11002058 0.07846646 0.31457448
-0.1093417 0.078439921 0.31446809
-0.10870004 0.078439921 0.31446809
-0.10798527 0.078386851 0.31425533
-0.10712601 0.078227639 0.31361702
-0.10612487 0.077962279 0.3125532
-0.10509217 0.07767038 0.31138298
-0.10406424 0.077378489 0.31021276
-0.10318297 0.077192739 0.30946809
-0.1024105 0.07708659 0.30904254
-0.10163976 0.076980449 0.30861703
-0.10083595 0.076847777 0.30808511
-0.099930495 0.076635487 0.30723405
-0.099028513 0.076423198 0.30638298
-0.098095834 0.076184377 0.30542552
-0.09720102 0.075972088 0.30457446
-0.096343413 0.075786337 0.30382979
-0.095689937 0.075759798 0.30372339
-0.095170103 0.075839408 0.30404255
-0.094814368 0.076051697 0.30489361
-0.09432371 0.076157846 0.30531916
-0.09353748 0.076025166 0.30478725
-0.092558824 0.075733267 0.30361703
-0.091552727 0.075414836 0.30234042
-0.09074384 0.075255625 0.30170214
-0.09006466 0.075202547 0.30148935
-0.089386351 0.075149477 0.30127659
-0.088614881 0.075016804 0.30074468
-0.087752193 0.074804515 0.29989362
-0.08692389 0.074618764 0.29914895
-0.086160012 0.074486084 0.29861704
-0.085428782 0.074379943 0.29819149
-0.084729545 0.074300334 0.29787233
-0.08406166 0.074247263 0.29765958
-0.083454296 0.074247263 0.29765958
-0.082965367 0.074353404 0.29808509
-0.082504101 0.074486084 0.29861704
-0.082011484 0.074592225 0.29904255
-0.08148817 0.074671835 0.29936171
-0.081021041 0.074804515 0.29989362
-0.080637306 0.075016804 0.30074468
-0.080250107 0.075229086 0.30159575
-0.079775155 0.075361766 0.30212766
-0.079186551 0.075388305 0.30223405
-0.078597501 0.075414836 0.30234042
-0.078035466 0.075467907 0.30255318
-0.077499777 0.075547516 0.30287233
-0.076908782 0.075574055 0.30297872
-0.076370932 0.075653665 0.30329788
-0.07585834 0.075759798 0.30372339
-0.11679123 0.080231965 0.31904256
-0.11579169 0.079991184 0.3180851
-0.11502712 0.079910919 0.31776595
-0.11434044 0.079884171 0.31765959
-0.11357804 0.079803914 0.31734043
-0.1126655 0.079616636 0.31659573
-0.11171838 0.079402618 0.31574467
-0.11084957 0.079242103 0.31510639
-0.11005778 0.07913509 0.31468084
-0.1093787 0.079108343 0.31457448
-0.10870004 0.079081587 0.31446809
-0.10791215 0.078974567 0.31404254
-0.107017 0.078787304 0.31329787
-0.10598038 0.078493021 0.31212765
-0.10487674 0.078145228 0.31074467
-0.10388581 0.0778777 0.30968085
-0.10304108 0.077717185 0.30904254
-0.10233999 0.077663682 0.30882978
-0.10163976 0.077610172 0.30861703
-0.10083595 0.077476412 0.30808511
-0.099965088 0.077289134 0.30734041
-0.099028513 0.077048361 0.30638298
-0.098095834 0.076807588 0.30542552
-0.097167075 0.076566815 0.3044681
-0.096343413 0.076406293 0.30382979
-0.095723458 0.076406293 0.30382979
-0.0952034 0.076486558 0.30414894
-0.094781294 0.076647073 0.30478725
-0.094192244 0.076673821 0.30489361
-0.09337423 0.076513305 0.30425531
-0.092331797 0.076165512 0.30287233
-0.091359451 0.075871237 0.30170214
-0.090551853 0.075710721 0.30106384
-0.089905761 0.075683966 0.30095744
-0.089228541 0.075630464 0.30074468
-0.088458151 0.075496696 0.30021277
-0.087565415 0.075255916 0.29925531
-0.086707503 0.07504189 0.29840425
-0.085914455 0.074881382 0.29776597
-0.085215442 0.074801125 0.29744682
-0.084578246 0.07477437 0.29734042
-0.083941482 0.074747607 0.29723403
-0.083364815 0.07477437 0.29734042
-0.082906149 0.07490813 0.29787233
-0.082445316 0.07504189 0.29840425
-0.081953131 0.07514891 0.29882979
-0.081401296 0.075202413 0.29904255
-0.080906071 0.075309418 0.29946807
-0.080437645 0.075443193 0.30000001
-0.080023646 0.075630464 0.30074468
-0.079522341 0.075737469 0.3011702
-0.078991435 0.075817727 0.30148935
-0.078431576 0.075871237 0.30170214
-0.077925712 0.075978249 0.30212766
-0.077418111 0.076085255 0.30255318
-0.076881781 0.076165512 0.30287233
-0.076370932 0.076272532 0.30329788
-0.075884916 0.076406293 0.30382979
-0.075370371 0.076513305 0.30425531
-0.074854091 0.076620318 0.30468085
-0.11667439 0.080802046 0.31872341
-0.11571424 0.080586284 0.31787235
-0.11495011 0.080505379 0.31755319
-0.11426385 0.0804784 0.3174468
-0.11342574 0.080343552 0.31691489
-0.11251408 0.080154769 0.31617022
-0.11160547 0.079965979 0.31542554
-0.11081214 0.079858094 0.315
-0.11013219 0.079831123 0.3148936
-0.10945267 0.07980416 0.31478724
-0.10873682 0.079750217 0.31457448
-0.10794871 0.079642333 0.31414893
-0.10698066 0.079399608 0.3131915
-0.10590814 0.079075962 0.31191489
-0.10476902 0.078698382 0.31042552
-0.10377874 0.078428686 0.3093617
-0.10293467 0.078266867 0.30872339
-0.09527 0.077161096 0.3043617
-0.094814368 0.077295944 0.30489361
-0.094159387 0.07726898 0.30478725
-0.093276292 0.077053219 0.30393618
-0.092234507 0.076702602 0.30255318
-0.091230586 0.076378971 0.30127659
-0.090359867 0.07616321 0.30042553
-0.089651518 0.076082297 0.30010638
-0.088944472 0.076001383 0.29978722
-0.088113345 0.075812601 0.29904255
-0.087222993 0.075569868 0.29808509
-0.086367466 0.075354107 0.29723403
-0.085607499 0.075219259 0.29670212
-0.084971614 0.075192295 0.29659575
-0.084366426 0.075192295 0.29659575
-0.08376123 0.075192295 0.29659575
-0.083245516 0.075273201 0.29691491
-0.082787715 0.075408049 0.29744682
-0.082386531 0.075596839 0.29819149
-0.081923954 0.075731687 0.2987234
-0.081401296 0.075812601 0.29904255
-0.080877334 0.075893514 0.29936171
-0.080352068 0.07597442 0.29968086
-0.079825506 0.076055333 0.30000001
-0.079297625 0.076136239 0.30031914
-0.078768454 0.076217145 0.30063829
-0.078265637 0.076325029 0.30106384
-0.077815965 0.076486856 0.30170214
-0.077336453 0.076621704 0.30223405
-0.076881781 0.076783516 0.30287233
-0.076424502 0.076945335 0.30351064
-0.075964622 0.077107161 0.30414894
-0.075449429 0.077215038 0.30457446
-0.074906364 0.077295944 0.30489361
-0.074310161 0.077322923 0.30500001
-0.073713519 0.077349886 0.30510637
-0.11659651 0.081398018 0.31851065
-0.11567551 0.081207708 0.31776595
-0.11491159 0.081126139 0.3174468
-0.11418727 0.081071772 0.31723404
-0.11327344 0.080881462 0.31648937
-0.11232479 0.080663964 0.3156383
-0.11149254 0.080528036 0.31510639
-0.11077472 0.080473654 0.3148936
-0.1101694 0.080500841 0.315
-0.10952665 0.080500841 0.315
-0.10881037 0.080446467 0.31478724
-0.10794871 0.080283344 0.31414893
-0.10705334 0.080093041 0.31340426
-0.10598038 0.079766788 0.31212765
-0.10480493 0.079358988 0.31053191
-0.089365505 0.076449975 0.29914895
-0.088534154 0.076259658 0.29840425
-0.087674499 0.076042168 0.29755318
-0.086787201 0.075797483 0.29659575
-0.085996531 0.07563436 0.29595745
-0.085331254 0.075579986 0.29574469
-0.084788747 0.07563436 0.29595745
-0.084245376 0.075688735 0.2961702
-0.083731182 0.075770296 0.29648936
-0.083215684 0.075851858 0.29680851
-0.082758106 0.075987794 0.29734042
-0.082386531 0.076205291 0.29819149
-0.081982307 0.076395594 0.29893616
-0.081546083 0.076558717 0.29957446
-0.080992296 0.076613091 0.29978722
-0.080380589 0.076613091 0.29978722
-0.079768881 0.076613091 0.29978722
-0.079129092 0.076585911 0.29968086
-0.078601226 0.076667473 0.30000001
-0.078127362 0.076803409 0.30053192
-0.077733643 0.077020906 0.30138299
-0.077336453 0.077238403 0.30223405
-0.07693579 0.077455893 0.30308512
-0.076504864 0.077646203 0.30382979
-0.076017767 0.077782139 0.3043617
-0.075502142 0.077890888 0.30478725
-0.074932501 0.077945262 0.30500001
-0.074336074 0.077972442 0.30510637
-0.073739223 0.077999637 0.30521277
-0.073167413 0.078054003 0.30542552
-0.072645277 0.07816276 0.30585107
-0.10708967 0.080759928 0.31351063
-0.088060707 0.076457486 0.29680851
-0.087141626 0.076183446 0.29574469
-0.086289138 0.075964212 0.29489362
-0.085625596 0.075909406 0.29468086
-0.085116386 0.075991616 0.29499999
-0.084697314 0.076156043 0.29563829
-0.084275641 0.076320469 0.2962766
-0.083791271 0.076430082 0.29670212
-0.08327534 0.076512292 0.29702127
-0.082758106 0.076594509 0.29734042
-0.082415923 0.076841146 0.29829788
-0.082128182 0.077142581 0.29946807
-0.081690878 0.077307008 0.30010638
-0.08116474 0.077389225 0.30042553
-0.080494687 0.077334419 0.30021277
-0.079740584 0.077197395 0.29968086
-0.079044819 0.077115186 0.29936171
-0.078489728 0.077169992 0.29957446
-0.078072041 0.077361815 0.30031914
-0.077733643 0.077635862 0.30138299
-0.077418111 0.077937305 0.30255318
-0.077043809 0.078183942 0.30351064
-0.076612011 0.078375772 0.30425531
-0.076097474 0.078485392 0.30468085
-0.075554848 0.078567602 0.30500001
-0.074958637 0.078595005 0.30510637
-0.074361995 0.078622408 0.30521277
-0.073764928 0.078649819 0.30531916
-0.073218383 0.078732021 0.30563828
-0.072695814 0.078841642 0.30606383
-0.072196551 0.078978665 0.30659574
-0.071744785 0.079170488 0.30734041
-0.07133922 0.079417132 0.30829787
-0.070856549 0.079581559 0.30893618
-0.07037127 0.079745978 0.30957446
-0.08664009 0.076344967 0.29404256
-0.085915588 0.076234475 0.29361701
-0.085378297 0.076289721 0.2938298
-0.084993608 0.076483071 0.29457447
-0.084697314 0.076759279 0.29563829
-0.084336162 0.076980248 0.29648936
-0.083911449 0.077145979 0.29712766
-0.083394647 0.077228844 0.29744682
-0.082846932 0.077284083 0.29765958
-0.082504101 0.077532679 0.29861704
-0.08224488 0.077864125 0.29989362
-0.081777751 0.078002237 0.30042553
-0.081250966 0.078085095 0.30074468
-0.080523208 0.07797461 0.30031914
-0.079768881 0.077836506 0.29978722
-0.079044819 0.077726021 0.29936171
-0.078461848 0.077753641 0.29946807
-0.078099705 0.078002237 0.30042553
-0.077843398 0.07836131 0.30180851
-0.077581443 0.078720383 0.30319148
-0.077205837 0.078968979 0.30414894
-0.076719165 0.079107083 0.30468085
-0.076150611 0.079162322 0.30489361
-0.075581193 0.079217561 0.30510637
-0.074984774 0.079245187 0.30521277
-0.074413836 0.079300426 0.30542552
-0.073816329 0.079328053 0.30553192
-0.073243871 0.079383291 0.30574468
-0.072721079 0.079493783 0.30617023
-0.072221607 0.079631887 0.30670214
-0.071744785 0.079797611 0.30734041
-0.071289994 0.079990961 0.30808511
-0.070807748 0.080156684 0.30872339
-0.07037127 0.080377653 0.30957446
-0.069883384 0.080543384 0.31021276
-0.06941665 0.080736734 0.31095746
-0.068876274 0.080847219 0.31138298
-0.06821759 0.080819592 0.31127658
-0.067559347 0.080791973 0.31117022
-0.086357974 0.076694399 0.2930851
-0.08582221 0.076750085 0.29329789
-0.085378297 0.076889277 0.2938298
-0.084993608 0.077084139 0.29457447
-0.084697314 0.077362522 0.29563829
-0.084366426 0.077613063 0.29659575
-0.08397153 0.077807933 0.29734042
-0.083454296 0.077891447 0.29765958
-0.079768881 0.078448206 0.29978722
-0.07901673 0.078309022 0.29925531
-0.078517601 0.078420378 0.29968086
-0.078237981 0.078754432 0.30095744
-0.077980585 0.07911633 0.30234042
-0.077744775 0.079506069 0.30382979
-0.077367865 0.079756618 0.30478725
-0.076826312 0.079840124 0.30510637
-0.076230325 0.079867966 0.30521277
-0.075633906 0.079895802 0.30531916
-0.075037047 0.079923637 0.30542552
-0.07446567 0.079979315 0.30563828
-0.073893435 0.080034994 0.30585107
-0.07334581 0.080118515 0.30617023
-0.072771616 0.080174185 0.30638298
-0.072246656 0.080285534 0.3068085
-0.071744785 0.080424726 0.30734041
-0.07124076 0.080563925 0.30787235
-0.070758946 0.080730945 0.30851063
-0.070322901 0.080953658 0.3093617
-0.069931313 0.081232034 0.31042552
-0.069487892 0.081454739 0.31127658
-0.068946868 0.081566095 0.31170213
-0.068310849 0.081566095 0.31170213
-0.067651734 0.08153826 0.31159574
-0.067061692 0.081593931 0.3118085
-0.066538781 0.08173313 0.31234044
-0.086546049 0.077460766 0.2937234
-0.085977852 0.077488825 0.2938298
-0.085501939 0.077601038 0.29425532
-0.085054994 0.077741317 0.29478723
-0.084697314 0.077965759 0.29563829
-0.084336162 0.0781902 0.29648936
-0.083911449 0.078358538 0.29712766
-0.083364815 0.078414649 0.29734042
-0.078090347 0.079845473 0.30276597
-0.077853657 0.080238238 0.30425531
-0.077448875 0.080462679 0.30510637
-0.076906674 0.080546848 0.30542552
-0.076283462 0.080546848 0.30542552
-0.075686611 0.080574907 0.30553192
-0.075089313 0.080602959 0.30563828
-0.074517511 0.080659077 0.30585107
-0.073970541 0.080743238 0.30617023
-0.073447749 0.080855459 0.30659574
-0.072923228 0.080967687 0.30702129
-0.072346859 0.08102379 0.30723405
-0.071769625 0.0810799 0.30744681
-0.071216144 0.081164069 0.30776596
-0.070734553 0.0813324 0.30840427
-0.070322901 0.081584893 0.3093617
-0.069955282 0.081893504 0.31053191
-0.069559135 0.082174055 0.31159574
-0.069040991 0.082314335 0.31212765
-0.068427421 0.082342394 0.31223404
-0.067790322 0.082342394 0.31223404
-0.067221858 0.082426563 0.3125532
-0.066720083 0.082594894 0.3131915
-0.066215701 0.082763217 0.31382978
-0.086828165 0.07831455 0.29468086
-0.086195752 0.078286275 0.29457447
-0.085625596 0.07831455 0.29468086
-0.085085697 0.078371093 0.29489362
-0.08460588 0.078484178 0.29531914
-0.084124342 0.078597277 0.29574469
-0.0836711 0.078738637 0.2962766
-0.083096385 0.078766912 0.29638299
-0.075712956 0.081226602 0.30563828
-0.075115457 0.081254877 0.30574468
-0.074543431 0.08131142 0.30595744
-0.074073344 0.081481054 0.30659574
-0.073626138 0.081678964 0.30734041
-0.07312537 0.081820332 0.30787235
-0.072522216 0.081848599 0.30797872
-0.071893789 0.081848599 0.30797872
-0.071289994 0.081876874 0.30808511
-0.070783354 0.082018234 0.30861703
-0.070347093 0.082244411 0.30946809
-0.06997925 0.082555413 0.31063831
-0.069559135 0.082809858 0.31159574
-0.069064528 0.082979493 0.31223404
-0.068474047 0.083036035 0.3124468
-0.067882709 0.083092578 0.31265956
-0.067359142 0.083233953 0.3131915
-0.066878721 0.083431855 0.31393617
-0.066350378 0.083573215 0.31446809
-0.06581986 0.083714575 0.315
-0.086953543 0.079029791 0.29510638
-0.086320259 0.0790013 0.29499999
-0.085656501 0.078944325 0.29478723
-0.085054994 0.078944325 0.29478723
-0.084483974 0.078972816 0.29489362
-0.083912507 0.0790013 0.29499999
-0.083370663 0.079058282 0.29521278
-0.082768291 0.079058282 0.29521278
-0.074569352 0.08196421 0.30606383
-0.074124746 0.082163632 0.3068085
-0.073753573 0.082448535 0.30787235
-0.073276974 0.082619466 0.30851063
-0.072697565 0.08267644 0.30872339
-0.072067626 0.08267644 0.30872339
-0.071437687 0.08267644 0.30872339
-0.070880949 0.082761914 0.30904254
-0.070419639 0.082961343 0.30978724
-0.06997925 0.083189256 0.31063831
-0.069511645 0.083388686 0.31138298
-0.068993933 0.083531126 0.31191489
-0.068427421 0.083616599 0.31223404
-0.067905806 0.083759047 0.31276596
-0.067404896 0.083929986 0.31340426
-0.06692405 0.084129408 0.31414893
-0.066417716 0.084300347 0.31478724
-0.065864317 0.084414303 0.31521276
-0.065243147 0.084442794 0.31531915
-0.064621545 0.084471285 0.31542554
-0.087047584 0.079718068 0.29542553
-0.086289138 0.079574533 0.29489362
-0.085594676 0.079488419 0.29457447
-0.084962912 0.079459704 0.29446808
-0.08436206 0.079459704 0.29446808
-0.083730951 0.079431005 0.29436171
-0.083130315 0.079431005 0.29436171
-0.073428579 0.083421215 0.30914894
-0.072822824 0.083449923 0.30925533
-0.07221663 0.083478622 0.3093617
-0.071610011 0.083507329 0.30946809
-0.071027346 0.083564743 0.30968085
-0.070492186 0.083679572 0.3101064
-0.06997925 0.083823107 0.31063831
-0.069440395 0.083937928 0.31106383
-0.068876274 0.084024049 0.31138298
-0.068357483 0.084167577 0.31191489
-0.067836516 0.084311113 0.3124468
-0.067359142 0.084512062 0.3131915
-0.066901386 0.084741712 0.31404254
-0.066417716 0.084942661 0.31478724
-0.06588655 0.085086189 0.31531915
-0.065265164 0.085114904 0.31542554
-0.064665139 0.08517231 0.3156383
-0.064128973 0.085315846 0.31617022
-0.087047584 0.080320872 0.29542553
-0.086195752 0.080089487 0.29457447
-0.085471027 0.079973787 0.29414892
-0.084840134 0.079944871 0.29404256
-0.084301107 0.08000271 0.29425532
-0.083670422 0.079973787 0.29414892
-0.083040185 0.079944871 0.29404256
-0.072315969 0.084225565 0.30978724
-0.071757711 0.084312335 0.3101064
-0.07117375 0.084370181 0.31031916
-0.070588917 0.084428027 0.31053191
-0.070003211 0.084485874 0.31074467
-0.06941665 0.084543727 0.31095746
-0.068852745 0.084630489 0.31127658
-0.068310849 0.084746189 0.31170213
-0.067790322 0.084890805 0.31223404
-0.0672905 0.085064352 0.31287235
-0.066810735 0.085266814 0.31361702
-0.066327929 0.085469276 0.31436169
-0.065842092 0.085671745 0.31510639
-0.065265164 0.085758515 0.31542554
-0.064686924 0.085845277 0.31574467
-0.064172126 0.086018823 0.31638297
-0.063676082 0.086221285 0.31712765
-0.063134715 0.086365908 0.31765959
-0.087681957 0.080952823 0.29553193
-0.086922199 0.080807112 0.29499999
-0.086040102 0.080544852 0.29404256
-0.085285567 0.080399148 0.29351065
-0.084686667 0.080399148 0.29351065
-0.0841792 0.080486573 0.2938298
-0.083609909 0.080515705 0.29393616
-0.071856171 0.085061654 0.31053191
-0.071271345 0.085119933 0.31074467
-0.070685647 0.085178226 0.31095746
-0.07007511 0.085207358 0.31106383
-0.069487892 0.085265636 0.31127658
-0.068923339 0.085353062 0.31159574
-0.068380795 0.085469626 0.31202129
-0.067813419 0.085557051 0.31234044
-0.067267619 0.085673608 0.31276596
-0.066720083 0.08579018 0.3131915
-0.066215701 0.085965015 0.31382978
-0.065753169 0.086198144 0.31468084
-0.065243147 0.086372986 0.31531915
-0.064686924 0.086489543 0.31574467
-0.064150557 0.086635254 0.31627661
-0.06363336 0.086810097 0.31691489
-0.063071288 0.086926661 0.31734043
-0.062465616 0.08698494 0.31755319
-0.08736632 0.081262261 0.29446808
-0.08664009 0.081144832 0.29404256
-0.08582221 0.080939338 0.29329789
-0.085100092 0.080821902 0.29287234
-0.084533192 0.080851257 0.29297873
-0.084057286 0.080968685 0.29340425
-0.083519123 0.081027403 0.29361701
-0.070758186 0.085900791 0.31127658
-0.070170976 0.085959509 0.31148937
-0.069606632 0.086047575 0.3118085
-0.069040991 0.086135648 0.31212765
-0.068474047 0.086223722 0.3124468
-0.067859612 0.086253084 0.3125532
-0.067244731 0.08628244 0.31265956
-0.066629432 0.086311802 0.31276596
-0.066103466 0.086458586 0.31329787
-0.065664262 0.086722814 0.31425533
-0.065221131 0.086987026 0.31521276
-0.064708725 0.087163173 0.31585106
-0.064150557 0.087280609 0.31627661
-0.063590638 0.087398037 0.31670213
-0.062986709 0.087456748 0.31691489
-0.062381905 0.087515466 0.31712765
-0.061817657 0.087632902 0.31755319
-0.061354134 0.087897122 0.31851065
-0.087019138 0.081537798 0.29329789
-0.086389318 0.081508219 0.29319149
-0.085635431 0.081360348 0.29265958
-0.08497645 0.081301197 0.29244682
-0.084410407 0.081330769 0.29255319
-0.08393538 0.081449077 0.29297873
-0.069677882 0.086772539 0.31212765
-0.069088057 0.086831689 0.31234044
-0.06852068 0.08692041 0.31265956
-0.067905806 0.086949989 0.31276596
-0.067244731 0.08692041 0.31265956
-0.066584103 0.086890839 0.3125532
-0.066036128 0.087009132 0.31297871
-0.065597571 0.087275311 0.31393617
-0.065199129 0.087600634 0.31510639
-0.064752311 0.087866805 0.31606382
-0.064193711 0.087985106 0.31648937
-0.063569278 0.088014677 0.31659573
-0.062923275 0.088014677 0.31659573
-0.062298201 0.088044256 0.31670213
-0.061796945 0.088251278 0.3174468
-0.061354134 0.088547029 0.31851065
-0.086735062 0.081868134 0.29234043
-0.086169906 0.081897929 0.29244682
-0.08551091 0.08183834 0.29223403
-0.084914617 0.08183834 0.29223403
-0.084379718 0.081897929 0.29244682
-0.083843946 0.081957512 0.29265958
-0.066036128 0.087647758 0.31297871
-0.065597571 0.08791589 0.31393617
-0.065199129 0.088243604 0.31510639
-0.064795904 0.08857131 0.31627661
-0.064280018 0.088750057 0.31691489
-0.06363336 0.088750057 0.31691489
-0.062923275 0.08866068 0.31659573
-0.062298201 0.088690475 0.31670213
-0.061776239 0.088869229 0.31734043
-0.061333641 0.089167148 0.31840426
-0.086981997 0.082134545 0.29117021
-0.08651413 0.082254581 0.29159576
-0.086013168 0.082344607 0.29191488
-0.085417524 0.082344607 0.29191488
-0.084883712 0.082404628 0.29212767
-0.084410407 0.082524657 0.29255319
-0.083874419 0.082584679 0.29276595
-0.065221131 0.08891657 0.31521276
-0.064883083 0.089336693 0.31670213
-0.064366333 0.089516751 0.31734043
-0.063697442 0.089486741 0.31723404
-0.062986709 0.089396715 0.31691489
-0.06231913 0.089366712 0.31680852
-0.061776239 0.089516751 0.31734043
-0.061313145 0.089786828 0.31829786
-0.086600639 0.08236596 0.28989363
-0.086230054 0.082577534 0.2906383
-0.085793748 0.082728669 0.29117021
-0.08529301 0.082819343 0.29148936
-0.084852792 0.082970478 0.29202127
-0.084410407 0.083121605 0.29255319
-0.08393538 0.083242513 0.29297873
-0.063740164 0.090194494 0.3174468
-0.063007854 0.090073593 0.31702128
-0.062340055 0.090043366 0.31691489
-0.061776239 0.090164274 0.31734043
-0.061333641 0.090466537 0.31840426
-0.086808182 0.082592152 0.28861701
-0.086409956 0.082774818 0.28925532
-0.086009122 0.082957476 0.28989363
-0.085605666 0.083140127 0.2905319
-0.085168496 0.083292343 0.29106382
-0.08482188 0.083535887 0.29191488
-0.084441103 0.083748996 0.29265958
-0.083996333 0.083901212 0.29319149
-0.086808182 0.083181068 0.28861701
-0.086378172 0.083334364 0.28914893
-0.085945986 0.083487667 0.28968084
-0.085480288 0.083610311 0.29010639
-0.08507511 0.083794273 0.29074469
-0.084790975 0.08410088 0.29180852
-0.084471799 0.084376812 0.29276595
-0.084026814 0.084530123 0.29329789
-0.087558165 0.083924368 0.28914893
-0.087000169 0.083955243 0.28925532
-0.086505294 0.084047876 0.28957447
-0.085977554 0.084109634 0.28978723
-0.085480288 0.084202267 0.29010639
-0.08507511 0.084387533 0.29074469
-0.084790975 0.0846963 0.29180852
-0.084502496 0.085005075 0.29287234
-0.084057286 0.085159458 0.29340425
-0.087880321 0.084825315 0.29021278
-0.087256148 0.084794216 0.29010639
-0.086600639 0.084732033 0.28989363
-0.085977554 0.084700935 0.28978723
-0.085448943 0.084763117 0.28999999
-0.085106239 0.085011877 0.29085106
-0.084852792 0.085353911 0.29202127
-0.084533192 0.08563377 0.29297873
-0.088170238 0.085699283 0.29117021
-0.087384135 0.085511409 0.2905319
-0.086568855 0.085292235 0.28978723
-0.085882865 0.085198298 0.28946808
-0.085386254 0.085292235 0.28978723
-0.08507511 0.085574038 0.29074469
-0.08482188 0.085918456 0.29191488
-0.084471799 0.086168952 0.29276595
-0.088202454 0.086324938 0.2912766
-0.087288149 0.086009651 0.29021278
-0.086378172 0.085694365 0.28914893
-0.085693479 0.085599773 0.28882977
-0.085229523 0.085725896 0.28925532
-0.084950596 0.086041175 0.29031914
-0.084698237 0.086387992 0.29148936
-0.088861659 0.086982764 0.29148936
-0.088041387 0.086760551 0.29074469
-0.087064162 0.086379603 0.28946808
-0.086187497 0.086093895 0.28851065
-0.085504107 0.085998654 0.2881915
-0.085041448 0.086125635 0.28861701
-0.084732696 0.086411349 0.28957447
-0.084420025 0.086697049 0.2905319
-0.08863464 0.087353803 0.29074469
-0.087751456 0.087066136 0.28978723
-0.086808182 0.086714551 0.28861701
-0.085996814 0.08649081 0.28787234
-0.085409418 0.08649081 0.28787234
-0.084947407 0.086618662 0.28829786
-0.084608175 0.086874358 0.28914893
-0.084141828 0.087002218 0.28957447
-0.089064658 0.08778616 0.29021278
-0.088342756 0.087657437 0.28978723
-0.087461524 0.087367818 0.28882977
-0.086616203 0.087110378 0.28797871
-0.085933253 0.087013848 0.28765959
-0.085377857 0.08704602 0.28776595
-0.084947407 0.087206922 0.28829786
-0.084545918 0.087400004 0.28893617
-0.084049091 0.087496541 0.28925532
-0.088574924 0.087892376 0.28861701
-0.08792115 0.087827586 0.28840426
-0.087171599 0.087665603 0.28787234
-0.086488217 0.08756841 0.28755319
-0.085869692 0.087536007 0.2874468
-0.085377857 0.0876332 0.28776595
-0.084947407 0.087795183 0.28829786
-0.084545918 0.087989569 0.28893617
-0.084049091 0.088086754 0.28925532
-0.088019907 0.087926857 0.28680852
-0.087531984 0.088024698 0.28712767
-0.086978316 0.088057309 0.28723404
-0.086392224 0.088057309 0.28723404
-0.085806131 0.088057309 0.28723404
-0.085314728 0.08815515 0.28755319
-0.084853366 0.088285603 0.28797871
-0.084483661 0.088513903 0.28872341
-0.046998333 0.060661703 0.19787234
-0.046644684 0.060726929 0.1980851
-0.046215665 0.060694315 0.19797872
-0.045787077 0.060661703 0.19787234
-0.087660775 0.088150941 0.2856383
-0.087272532 0.088347927 0.28627661
-0.086817242 0.088479243 0.28670213
-0.086328231 0.08857774 0.28702128
-0.08574257 0.08857774 0.28702128
-0.085220039 0.088643402 0.28723404
-0.084727988 0.088741891 0.28755319
-0.08429689 0.08890605 0.2880851
-0.047703031 0.06093413 0.19744681
-0.047351118 0.060999796 0.19765958
-0.047023602 0.061098285 0.19797872
-0.046644684 0.061131112 0.1980851
-0.046215665 0.061098285 0.19797872
-0.045787077 0.061065454 0.19787234
-0.04535893 0.061032623 0.19776596
-0.044955395 0.061032623 0.19776596
-0.044575825 0.061065454 0.19787234
-0.087947816 0.088436343 0.28468084
-0.087497532 0.088568538 0.28510639
-0.087110363 0.088766821 0.28574467
-0.086752817 0.088998161 0.28648937
-0.086264238 0.089097306 0.28680852
-0.085679017 0.089097306 0.28680852
-0.085093789 0.089097306 0.28680852
-0.084571257 0.0891634 0.28702128
-0.047754437 0.061403114 0.19765958
-0.047376603 0.061436158 0.19776596
-0.047023602 0.061502252 0.19797872
-0.046619631 0.061502252 0.19797872
-0.046215665 0.061502252 0.19797872
-0.045787077 0.061469205 0.19787234
-0.045383327 0.061469205 0.19787234
-0.044955395 0.061436158 0.19776596
-0.044575825 0.061469205 0.19787234
-0.044172071 0.061469205 0.19787234
-0.043791849 0.061502252 0.19797872
-0.043434512 0.061568353 0.19819149
-0.087783493 0.088850901 0.28414893
-0.087366939 0.08901722 0.28468084
-0.087045506 0.08928334 0.28553191
-0.086688392 0.0895162 0.28627661
-0.086232238 0.08964926 0.28670213
-0.085647233 0.08964926 0.28670213
-0.085062228 0.08964926 0.28670213
-0.084477223 0.08964926 0.28670213
-0.048183672 0.061839696 0.19776596
-0.047805838 0.061872959 0.19787234
-0.047402088 0.061872959 0.19787234
-0.046998333 0.061872959 0.19787234
-0.046594582 0.061872959 0.19787234
-0.046190832 0.061872959 0.19787234
-0.045762464 0.061839696 0.19776596
-0.04535893 0.061839696 0.19776596
-0.044955395 0.061839696 0.19776596
-0.044551861 0.061839696 0.19776596
-0.044172071 0.061872959 0.19787234
-0.043791849 0.061906222 0.19797872
-0.043457825 0.062006019 0.19829787
-0.0430994 0.062072545 0.19851063
-0.088264041 0.089330249 0.28382978
-0.087750629 0.089397214 0.28404257
-0.087301642 0.089531139 0.28446808
-0.086948209 0.089765511 0.28521276
-0.08659175 0.089999892 0.28595746
-0.086168244 0.090167306 0.28648937
-0.085583672 0.090167306 0.28648937
-0.084999099 0.090167306 0.28648937
-0.048261426 0.062343672 0.1980851
-0.04785724 0.062343672 0.1980851
-0.047402088 0.06227671 0.19787234
-0.046973068 0.062243231 0.19776596
-0.046544485 0.062209748 0.19765958
-0.046141166 0.062209748 0.19765958
-0.045737848 0.062209748 0.19765958
-0.045334529 0.062209748 0.19765958
-0.044931211 0.062209748 0.19765958
-0.044527896 0.062209748 0.19765958
-0.044148322 0.062243231 0.19776596
-0.043791849 0.062310193 0.19797872
-0.043457825 0.062410638 0.19829787
-0.0430994 0.0624776 0.19851063
-0.042717226 0.062511086 0.19861703
-0.08823096 0.089875698 0.28372341
-0.087684892 0.08990939 0.28382978
-0.087203696 0.090010487 0.28414893
-0.086818486 0.090212688 0.28478724
-0.086462885 0.090448581 0.28553191
-0.086008258 0.090583377 0.28595746
-0.085488334 0.090650775 0.28617021
-0.08490441 0.090650775 0.28617021
-0.048287351 0.062781557 0.19819149
-0.04785724 0.062747858 0.1980851
-0.047402088 0.062680461 0.19787234
-0.0469478 0.062613063 0.19765958
-0.04649438 0.062545665 0.19744681
-0.046091497 0.062545665 0.19744681
-0.045688611 0.062545665 0.19744681
-0.045285728 0.062545665 0.19744681
-0.044907026 0.062579364 0.19755319
-0.044527896 0.062613063 0.19765958
-0.044148322 0.062646762 0.19776596
-0.043815382 0.062747858 0.1980851
-0.043457825 0.062815256 0.19829787
-0.043076303 0.062848955 0.19840425
-0.042694345 0.062882654 0.19851063
-0.088264041 0.090488538 0.28382978
-0.087717764 0.090522453 0.28393617
-0.087171055 0.090556376 0.28404257
-0.086688757 0.090658113 0.28436169
-0.086269602 0.090827696 0.2848936
-0.085848279 0.090997286 0.28542554
-0.085361205 0.091099024 0.28574467
-0.084809721 0.091132946 0.28585106
-0.048261426 0.063152045 0.1980851
-0.04785724 0.063152045 0.1980851
-0.047376603 0.0630503 0.19776596
-0.046922531 0.062982462 0.19755319
-0.046469331 0.062914632 0.19734043
-0.046066664 0.062914632 0.19734043
-0.045663998 0.062914632 0.19734043
-0.045261331 0.062914632 0.19734043
-0.044882845 0.062948547 0.19744681
-0.044503927 0.062982462 0.19755319
-0.044148322 0.0630503 0.19776596
-0.043815382 0.063152045 0.1980851
-0.043457825 0.063219883 0.19829787
-0.043076303 0.063253798 0.19840425
-0.042671464 0.063253798 0.19840425
-0.08836329 0.09117008 0.28414893
-0.087783493 0.09117008 0.28414893
-0.087171055 0.091135956 0.28404257
-0.0866239 0.09117008 0.28414893
-0.086140744 0.091272481 0.28446808
-0.085720286 0.091443151 0.285
-0.085297652 0.091613814 0.28553191
-0.084778152 0.091682076 0.28574467
-0.048639476 0.0635221 0.19797872
-0.04823551 0.0635221 0.19797872
-0.047805838 0.063487969 0.19787234
-0.047351118 0.0634197 0.19765958
-0.046897262 0.06335143 0.19744681
-0.046469331 0.063317299 0.19734043
-0.046041831 0.063283168 0.19723405
-0.045639381 0.063283168 0.19723405
-0.045261331 0.063317299 0.19734043
-0.044882845 0.06335143 0.19744681
-0.044503927 0.063385561 0.19755319
-0.044148322 0.063453831 0.19776596
-0.043791849 0.0635221 0.19797872
-0.043434512 0.06359037 0.19819149
-0.043053206 0.063624501 0.19829787
-0.042671464 0.063658632 0.19840425
-0.088429451 0.091818579 0.28436169
-0.087849222 0.091818579 0.28436169
-0.087268993 0.091818579 0.28436169
-0.086656332 0.091784231 0.28425533
-0.086108528 0.091818579 0.28436169
-0.085688286 0.091990329 0.2848936
-0.085265875 0.092162088 0.28542554
-0.084746599 0.092230789 0.2856383
-0.048613343 0.063891716 0.19787234
-0.048183672 0.063857369 0.19776596
-0.047728732 0.063788667 0.19755319
-0.047300145 0.063754313 0.19744681
-0.046871997 0.063719966 0.19734043
-0.046419226 0.063651264 0.19712766
-0.046016995 0.063651264 0.19712766
-0.04561476 0.063651264 0.19712766
-0.04523693 0.063685618 0.19723405
-0.044858664 0.063719966 0.19734043
-0.044479962 0.063754313 0.19744681
-0.044124577 0.063823022 0.19765958
-0.04376832 0.063891716 0.19787234
-0.043411195 0.063960418 0.1980851
-0.043030109 0.063994773 0.19819149
-0.042648584 0.06402912 0.19829787
-0.08836329 0.092329673 0.28414893
-0.087882087 0.092433378 0.28446808
-0.08733429 0.092467949 0.28457448
-0.086721197 0.092433378 0.28446808
-0.086140744 0.092433378 0.28446808
-0.085624292 0.092502512 0.28468084
-0.085170537 0.092640787 0.28510639
-0.04856107 0.064226337 0.19765958
-0.048105914 0.064157203 0.19744681
-0.047651626 0.064088069 0.19723405
-0.047223691 0.064053498 0.19712766
-0.046796191 0.064018928 0.19702128
-0.046369124 0.063984364 0.1969149
-0.045967329 0.063984364 0.1969149
-0.045565531 0.063984364 0.1969149
-0.045188129 0.064018928 0.19702128
-0.044810295 0.064053498 0.19712766
-0.044455998 0.064122632 0.19734043
-0.044100825 0.064191766 0.19755319
-0.043721259 0.064226337 0.19765958
-0.04336457 0.064295471 0.19787234
-0.042983912 0.064330034 0.19797872
-0.088776588 0.092735551 0.28361702
-0.088297129 0.092839904 0.28393617
-0.087849222 0.092979036 0.28436169
-0.08733429 0.093048617 0.28457448
-0.086753629 0.093048617 0.28457448
-0.086108528 0.092979036 0.28436169
-0.085496306 0.092944257 0.28425533
-0.084979855 0.093013823 0.28446808
-0.048938032 0.064594865 0.19755319
-0.048482664 0.064525299 0.19734043
-0.048028156 0.064455725 0.19712766
-0.04757452 0.064386159 0.1969149
-0.047121752 0.064316593 0.19670212
-0.046720386 0.064316593 0.19670212
-0.046319023 0.064316593 0.19670212
-0.04591766 0.064316593 0.19670212
-0.045540914 0.06435138 0.19680852
-0.045139331 0.06435138 0.19680852
-0.044761933 0.064386159 0.1969149
-0.044408064 0.064455725 0.19712766
-0.044029582 0.064490519 0.19723405
-0.043674193 0.064560086 0.19744681
-0.043294623 0.064594865 0.19755319
-0.042914622 0.064629652 0.19765958
-0.089388818 0.093349263 0.28372341
-0.088776588 0.09331426 0.28361702
-0.088264041 0.093384258 0.28382978
-0.087783493 0.093489267 0.28414893
-0.087268993 0.093559273 0.28436169
-0.086656332 0.09352427 0.28425533
-0.085947461 0.093384258 0.28382978
-0.085240327 0.093244262 0.28340426
-0.084598497 0.093174256 0.2831915
-0.048858978 0.064892963 0.19723405
-0.048404254 0.064822957 0.19702128
-0.047924478 0.064717956 0.19670212
-0.047471713 0.06464795 0.19648936
-0.047045298 0.064612955 0.19638298
-0.046644587 0.064612955 0.19638298
-0.046268921 0.06464795 0.19648936
-0.045867991 0.06464795 0.19648936
-0.045491677 0.064682953 0.19659574
-0.045114931 0.064717956 0.19670212
-0.044713564 0.064717956 0.19670212
-0.04433617 0.064752959 0.19680852
-0.043958336 0.064787962 0.1969149
-0.043603599 0.06485796 0.19712766
-0.043224685 0.064892963 0.19723405
-0.042822234 0.064892963 0.19723405
-0.089522883 0.094069064 0.28414893
-0.088843182 0.093963407 0.28382978
-0.088264041 0.093963407 0.28382978
-0.087684892 0.093963407 0.28382978
-0.087105751 0.093963407 0.28382978
-0.086429305 0.09385775 0.28351063
-0.085689746 0.093681656 0.28297871
-0.084920362 0.09347035 0.28234044
-0.084217131 0.093329474 0.28191489
-0.048806269 0.065224975 0.19702128
-0.048325844 0.065119319 0.19670212
-0.047846723 0.065013662 0.19638298
-0.047394603 0.064943224 0.19617021
-0.046994325 0.064943224 0.19617021
-0.046594046 0.064943224 0.19617021
-0.04621882 0.064978443 0.19627659
-0.045843158 0.065013662 0.19638298
-0.045467064 0.065048881 0.19648936
-0.04509053 0.0650841 0.19659574
-0.044689383 0.0650841 0.19659574
-0.044312201 0.065119319 0.19670212
-0.043910839 0.065119319 0.19670212
-0.043533009 0.065154538 0.19680852
-0.043154739 0.065189756 0.1969149
-0.090305082 0.094861478 0.28478724
-0.089656949 0.094790608 0.28457448
-0.088943087 0.09464886 0.28414893
-0.08823096 0.094507121 0.28372341
-0.087553434 0.094400816 0.28340426
-0.086877212 0.094294503 0.28308511
-0.086137436 0.094117329 0.2825532
