# .PCD v0.7 - Point Cloud Data file format
VERSION 0.7
FIELDS x y z
SIZE 4 4 4
TYPE F F F
COUNT 1 1 1
WIDTH 1356
HEIGHT 1
VIEWPOINT 0 0 0 1 0 0 0
POINTS 1356
DATA ascii
-0.056548465 0.097726278 0.27329788
-0.056012601 0.097764313 0.27340424
-0.055497888 0.097840406 0.27361703
-0.054982301 0.097916484 0.27382979
-0.054444708 0.097954527 0.27393618
-0.053906672 0.097992562 0.27404255
-0.053368211 0.098030604 0.27414894
-0.052808817 0.098030604 0.27414894
-0.052269697 0.09806864 0.27425531
-0.051770266 0.09818276 0.27457446
-0.05124969 0.098258853 0.27478725
-0.050747864 0.098372966 0.27510637
-0.050244741 0.098487087 0.27542552
-0.049740314 0.098601215 0.27574468
-0.049234588 0.098715335 0.27606383
-0.048727557 0.098829456 0.27638298
-0.048219223 0.098943584 0.27670214
-0.047672939 0.098981611 0.2768085
-0.047144335 0.099057704 0.27702129
-0.046632741 0.099171817 0.27734041
-0.046137519 0.099323988 0.27776596
-0.045658015 0.099514186 0.27829787
-0.045176338 0.099704385 0.27882978
-0.04469249 0.099894591 0.2793617
-0.044223275 0.10012284 0.28
-0.043718282 0.10027499 0.28042552
-0.043178823 0.10035108 0.28063831
-0.042622339 0.10038912 0.28074467
-0.04204949 0.10038912 0.28074467
-0.041492358 0.10042716 0.28085107
-0.040934794 0.10046521 0.28095746
-0.040407352 0.10057932 0.28127658
-0.039863549 0.10065541 0.28148937
-0.039304025 0.10069344 0.28159574
-0.03872944 0.10069344 0.28159574
-0.038154855 0.10069344 0.28159574
-0.037594467 0.10073148 0.28170213
-0.037061602 0.10084561 0.28202128
-0.03652744 0.10095973 0.28234044
-0.035951331 0.10095973 0.28234044
-0.035308581 0.10076953 0.28180853
-0.034602437 0.10038912 0.28074467
-0.024074372 0.090917014 0.25425532
-0.023506293 0.090726815 0.25372341
-0.022959661 0.090612687 0.25340426
-0.022423755 0.090536609 0.2531915
-0.021870308 0.090384446 0.25276595
-0.021327583 0.090270318 0.2524468
-0.020821245 0.090308368 0.25255319
-0.02035724 0.090536609 0.2531915
-0.019890629 0.09076485 0.25382978
-0.019413294 0.090955049 0.25436169
-0.018925887 0.091107219 0.25478724
-0.018429058 0.09122134 0.25510639
-0.017953331 0.091449589 0.2557447
-0.017474998 0.091677822 0.25638297
-0.017001096 0.091944113 0.25712767
-0.016517336 0.092172347 0.25776595
-0.016044172 0.092476673 0.25861701
-0.015580299 0.092857078 0.25968084
-0.015124418 0.093313575 0.26095745
-0.014663326 0.093770057 0.26223403
-0.014197025 0.094226547 0.26351064
-0.01372 0.094644994 0.26468086
-0.013248794 0.095139518 0.26606384
-0.012777023 0.095672086 0.26755318
-0.012308902 0.096280731 0.26925531
-0.011838482 0.096927427 0.27106383
-0.011360679 0.097574115 0.27287233
-0.010883921 0.098296888 0.27489361
-0.0104109 0.099133782 0.27723405
-0.0063958052 0.10773095 0.30127659
-0.0058361762 0.10875805 0.30414894
-0.0052557043 0.10959494 0.30648935
-0.0046544312 0.11016555 0.30808511
-0.0040383046 0.11050791 0.30904254
-0.003417098 0.11081224 0.30989361
-0.0027952862 0.11123069 0.31106383
-0.0021716545 0.1118013 0.31265956
-0.0015420326 0.11240994 0.31436169
-0.00090394053 0.11282839 0.31553191
-0.00026063444 0.11305664 0.31617022
0.00038527657 0.11328489 0.31680852
0.0010344853 0.11358921 0.31765959
0.0016905481 0.11412177 0.31914893
-0.14419812 0.082139201 0.22840425
-0.14366512 0.082100943 0.22829787
-0.14313257 0.082062684 0.22819149
-0.14253391 0.081986167 0.22797872
-0.14200245 0.081947915 0.22787234
-0.1414714 0.081909657 0.22776596
-0.14100665 0.081909657 0.22776596
-0.14047626 0.081871398 0.22765957
-0.13988088 0.08179488 0.22744681
-0.13935158 0.081756629 0.22734043
-0.13882269 0.081718363 0.22723404
-0.13822947 0.081641853 0.22702128
-0.13770169 0.081603594 0.2269149
-0.13704567 0.081488818 0.22659574
-0.13645506 0.081412308 0.22638299
-0.13599312 0.081412308 0.22638299
-0.1355312 0.081412308 0.22638299
-0.13506928 0.081412308 0.22638299
-0.13454409 0.081374049 0.22627659
-0.1339563 0.081297532 0.22606383
-0.13330656 0.081182756 0.22574468
-0.13272074 0.081106246 0.22553192
-0.13219815 0.081067987 0.22542553
-0.13180035 0.081106246 0.22553192
-0.13140212 0.081144504 0.2256383
-0.13100344 0.081182756 0.22574468
-0.13054281 0.081182756 0.22574468
-0.13008219 0.081182756 0.22574468
-0.12949941 0.081106246 0.22553192
-0.12897834 0.081067987 0.22542553
-0.12851836 0.081067987 0.22542553
-0.12811883 0.081106246 0.22553192
-0.12777907 0.081182756 0.22574468
-0.12731844 0.081182756 0.22574468
-0.12673827 0.081106246 0.22553192
-0.1260398 0.080953218 0.22510639
-0.1253431 0.080800183 0.22468086
-0.12470724 0.080685407 0.2243617
-0.12413161 0.080608889 0.22414893
-0.12361555 0.080570638 0.22404255
-0.1231584 0.080570638 0.22404255
-0.12275951 0.080608889 0.22414893
-0.12230214 0.080608889 0.22414893
-0.12184477 0.080608889 0.22414893
-0.1213874 0.080608889 0.22414893
-0.12087264 0.080570638 0.22404255
-0.12035831 0.080532379 0.22393617
-0.11978746 0.080455869 0.22372341
-0.11916073 0.080341093 0.22340426
-0.11859182 0.080264576 0.22319148
-0.1180801 0.080226317 0.22308511
-0.1176249 0.080226317 0.22308511
-0.11722558 0.080264576 0.22319148
-0.11682583 0.080302835 0.22329788
-0.11642563 0.080341093 0.22340426
-0.11591457 0.080302835 0.22329788
-0.11534891 0.080226317 0.22308511
-0.11478414 0.080149807 0.22287235
-0.1142748 0.080111541 0.22276595
-0.11382025 0.080111541 0.22276595
-0.11336571 0.080111541 0.22276595
-0.11291116 0.080111541 0.22276595
-0.11234921 0.080035031 0.22255319
-0.11178812 0.079958513 0.22234042
-0.11112136 0.079805478 0.22191489
-0.1105094 0.07969071 0.22159575
-0.10989873 0.079575941 0.2212766
-0.10934198 0.079499416 0.22106382
-0.10878611 0.079422906 0.22085106
-0.10833547 0.079422906 0.22085106
-0.10788483 0.079422906 0.22085106
-0.10743419 0.079422906 0.22085106
-0.10703508 0.079461165 0.22095744
-0.10663554 0.079499416 0.22106382
-0.10623557 0.079537682 0.22117022
-0.10578428 0.079537682 0.22117022
-0.10523166 0.079461165 0.22095744
-0.10462946 0.079346396 0.2206383
-0.10412902 0.07930813 0.22053191
-0.10367903 0.07930813 0.22053191
-0.10322905 0.07930813 0.22053191
-0.10277905 0.07930813 0.22053191
-0.10223035 0.07923162 0.22031915
-0.10163336 0.079116844 0.22
-0.10108659 0.079040334 0.21978724
-0.10058941 0.079002067 0.21968085
-0.10009266 0.078963816 0.21957447
-0.099596359 0.078925557 0.21946809
-0.099196598 0.078963816 0.21957447
-0.098796405 0.079002067 0.21968085
-0.098395787 0.079040334 0.21978724
-0.097852491 0.078963816 0.21957447
-0.09721569 0.078810781 0.21914893
-0.096580625 0.078657754 0.2187234
-0.095947295 0.078504719 0.21829787
-0.095362246 0.07838995 0.21797873
-0.094824821 0.078313433 0.21776596
-0.094334371 0.078275181 0.21765958
-0.093890242 0.078275181 0.21765958
-0.093446113 0.078275181 0.21765958
-0.092956536 0.078236923 0.2175532
-0.092422143 0.078160405 0.21734042
-0.091933645 0.078122146 0.21723405
-0.091445588 0.078083888 0.21712767
-0.091002546 0.078083888 0.21712767
-0.090559505 0.078083888 0.21712767
-0.090072304 0.078045629 0.21702127
-0.089629479 0.078045629 0.21702127
-0.089186653 0.078045629 0.21702127
-0.088700332 0.07800737 0.21691489
-0.088171154 0.07793086 0.21670213
-0.087685905 0.077892601 0.21659574
-0.087158255 0.077816084 0.21638298
-0.086674102 0.077777825 0.2162766
-0.086190373 0.077739567 0.21617021
-0.085707091 0.077701308 0.21606383
-0.085266218 0.077701308 0.21606383
-0.084783584 0.077663057 0.21595745
-0.084301382 0.077624798 0.21585107
-0.083778277 0.07754828 0.21563829
-0.083214931 0.077433504 0.21531914
-0.082734682 0.077395253 0.21521276
-0.082254872 0.077356994 0.21510638
-0.081856415 0.077395253 0.21521276
-0.081417285 0.077395253 0.21521276
-0.080938123 0.077356994 0.21510638
-0.080459394 0.077318735 0.215
-0.079941496 0.077242218 0.21478723
-0.079424478 0.077165708 0.21457447
-0.078869164 0.077050932 0.21425532
-0.078354098 0.076974422 0.21404256
-0.077839896 0.076897897 0.21382979
-0.07740359 0.076897897 0.21382979
-0.077005565 0.076936156 0.21393616
-0.076645188 0.077012673 0.21414894
-0.076246083 0.077050932 0.21425532
-0.075808898 0.077050932 0.21425532
-0.075334296 0.077012673 0.21414894
-0.074822918 0.076936156 0.21393616
-0.074349396 0.076897897 0.21382979
-0.073839545 0.076821387 0.21361703
-0.073403664 0.076821387 0.21361703
-0.07296779 0.076821387 0.21361703
-0.072568029 0.076859646 0.21372341
-0.072131932 0.076859646 0.21372341
-0.071660154 0.076821387 0.21361703
-0.071224272 0.076821387 0.21361703
-0.070788398 0.076821387 0.21361703
-0.07042259 0.076897897 0.21382979
-0.070055917 0.076974422 0.21404256
-0.069619164 0.076974422 0.21404256
-0.083814956 0.096294537 0.26776597
-0.083599418 0.096677117 0.26882979
-0.083149478 0.096791886 0.26914895
-0.082600288 0.096791886 0.26914895
-0.082051098 0.096791886 0.26914895
-0.081566334 0.096868403 0.2693617
-0.081048712 0.096906662 0.2694681
-0.080498867 0.096906662 0.2694681
-0.079885893 0.096830137 0.26925531
-0.059704069 0.075482368 0.20989361
-0.058194228 0.074105091 0.20606384
-0.057505321 0.07376077 0.20510638
-0.056968369 0.073607743 0.20468085
-0.056521334 0.073569484 0.20457447
-0.056103904 0.073569484 0.20457447
-0.055744398 0.073646002 0.20478724
-0.055412754 0.07376077 0.20510638
-0.055108339 0.073913805 0.20553191
-0.054887109 0.074181609 0.2062766
-0.054775197 0.07460244 0.20744681
-0.055271711 0.075864948 0.21095745
-0.065283246 0.097174466 0.27021277
-0.064731881 0.097174466 0.27021277
-0.064079449 0.097021423 0.26978722
-0.063403703 0.096830137 0.26925531
-0.062754966 0.096677117 0.26882979
-0.062132575 0.096562341 0.26851064
-0.061609089 0.0966006 0.26861703
-0.061157711 0.096753627 0.26904255
-0.060776498 0.097021423 0.26978722
-0.060344752 0.097212724 0.27031916
-0.059863765 0.097327486 0.27063829
-0.059288226 0.097289234 0.27053192
-0.058690023 0.097212724 0.27031916
-0.058115561 0.097174466 0.27021277
-0.057586867 0.097212724 0.27031916
-0.057080179 0.097289234 0.27053192
-0.056617081 0.097442262 0.27095744
-0.056108225 0.097518779 0.2711702
-0.055598505 0.097595297 0.27138299
-0.055087909 0.097671814 0.27159575
-0.05459781 0.097786583 0.2719149
-0.054085262 0.0978631 0.27212766
-0.053571846 0.09793961 0.27234042
-0.053036857 0.097977877 0.27244681
-0.052501433 0.098016135 0.27255321
-0.051985849 0.098092645 0.27276596
-0.051449332 0.098130897 0.27287233
-0.050952069 0.098245673 0.27319148
-0.050453506 0.098360449 0.27351063
-0.049953636 0.098475225 0.27382979
-0.049471654 0.098628245 0.27425531
-0.04898794 0.098781288 0.27468085
-0.048502482 0.098934308 0.27510637
-0.047996756 0.099049084 0.27542552
-0.047453083 0.099087343 0.27553192
-0.046945181 0.099202119 0.27585107
-0.046435982 0.099316895 0.27617022
-0.045960817 0.099508181 0.27670214
-0.04550093 0.099737719 0.27734041
-0.045038447 0.099967271 0.27797872
-0.044573355 0.10019682 0.27861702
-0.044105664 0.10042637 0.27925533
-0.043602191 0.1005794 0.27968085
-0.043080617 0.10069416 0.28
-0.042509284 0.10069416 0.28
-0.041953888 0.10073243 0.2801064
-0.041382343 0.10073243 0.2801064
-0.040826291 0.10077068 0.28021276
-0.040269811 0.10080894 0.28031915
-0.03969783 0.10080894 0.28031915
-0.039081302 0.10069416 0.28
-0.038436811 0.10050288 0.27946809
-0.037794497 0.10031159 0.27893618
-0.037182745 0.10019682 0.27861702
-0.036586277 0.10012031 0.27840427
-0.035963148 0.099967271 0.27797872
-0.025298322 0.090249829 0.25095746
-0.024723208 0.090020284 0.25031915
-0.02417128 0.089867249 0.24989362
-0.023641232 0.089790732 0.24968085
-0.023131767 0.089790732 0.24968085
-0.02265122 0.089905508 0.25
-0.022169368 0.090020284 0.25031915
-0.021667803 0.090058528 0.25042552
-0.021174796 0.090135053 0.25063831
-0.020698458 0.09028808 0.25106382
-0.020246046 0.090555891 0.25180852
-0.019807264 0.090900205 0.25276595
-0.019348338 0.091168001 0.25351062
-0.018870572 0.091359302 0.25404257
-0.018390633 0.091550589 0.25457448
-0.017915988 0.091780126 0.25521275
-0.017460497 0.092124447 0.25617021
-0.017001096 0.092468776 0.25712767
-0.016537786 0.092813089 0.2580851
-0.016083771 0.093233921 0.25925532
-0.01562498 0.093654759 0.26042554
-0.015186075 0.094228618 0.26202127
-0.014740658 0.094802484 0.26361701
-0.01428873 0.095376357 0.26521277
-0.013835805 0.095988475 0.2669149
-0.013391823 0.096715368 0.26893616
-0.012949754 0.097518779 0.2711702
-0.012508296 0.098398708 0.27361703
-0.0091585591 0.10478773 0.29138297
-0.0086484225 0.10582069 0.29425532
-0.0081294738 0.1068919 0.29723403
-0.0076037543 0.10803964 0.30042553
-0.0070625348 0.10914911 0.30351064
-0.0065019499 0.11014381 0.30627659
-0.0059178299 0.11090897 0.30840427
-0.0053104321 0.11136805 0.30968085
-0.0046849679 0.11152109 0.3101064
-0.0040549864 0.11159761 0.31031916
-0.0034253097 0.11171237 0.31063831
-0.0027981543 0.11198018 0.31138298
-0.0021709157 0.11240102 0.3125532
-0.0015383798 0.11278359 0.31361702
-0.00090058811 0.11305138 0.31436169
-0.000259319 0.11312791 0.31457448
0.00038281846 0.11320443 0.31478724
0.0010272099 0.11343397 0.31542554
0.0016764604 0.11381654 0.31648937
0.0023347358 0.11442867 0.3181915
-0.14386231 0.082412876 0.22787234
-0.1433304 0.082374409 0.22776596
-0.14266546 0.082258977 0.22744681
-0.14200182 0.082143553 0.22712766
-0.1413395 0.082028128 0.2268085
-0.14081062 0.081989653 0.22670212
-0.14041391 0.082028128 0.2268085
-0.13995111 0.082028128 0.2268085
-0.13948831 0.082028128 0.2268085
-0.13896032 0.081989653 0.22670212
-0.13836776 0.081912711 0.22648937
-0.13777606 0.081835754 0.22627659
-0.13712068 0.081720337 0.22595745
-0.13653094 0.08164338 0.22574468
-0.13600619 0.081604913 0.2256383
-0.13548188 0.081566438 0.22553192
-0.13508537 0.081604913 0.2256383
-0.13456149 0.081566438 0.22553192
-0.13403805 0.081527956 0.22542553
-0.133452 0.081451014 0.22521277
-0.13292964 0.081412539 0.22510639
-0.13240771 0.081374057 0.22499999
-0.132011 0.081412539 0.22510639
-0.13161384 0.081451014 0.22521277
-0.13121626 0.081489481 0.22531915
-0.13069476 0.081451014 0.22521277
-0.13023522 0.081451014 0.22521277
-0.12965308 0.081374057 0.22499999
-0.1290718 0.081297114 0.22478724
-0.1284914 0.081220157 0.22457446
-0.12809381 0.08125864 0.22468086
-0.12775622 0.081335582 0.22489361
-0.12741777 0.081412539 0.22510639
-0.12695846 0.081412539 0.22510639
-0.12637956 0.081335582 0.22489361
-0.12568241 0.081181683 0.22446808
-0.124987 0.081027783 0.22404255
-0.12435246 0.080912367 0.22372341
-0.12377813 0.080835417 0.22351064
-0.12332206 0.080835417 0.22351064
-0.122866 0.080835417 0.22351064
-0.1224682 0.080873884 0.22361702
-0.12201191 0.080873884 0.22361702
-0.1214978 0.080835417 0.22351064
-0.12098412 0.080796942 0.22340426
-0.12047088 0.080758467 0.22329788
-0.11995807 0.080719985 0.22319148
-0.11933178 0.080604568 0.22287235
-0.11876352 0.080527619 0.22265957
-0.11819614 0.080450669 0.22244681
-0.11768594 0.080412187 0.22234042
-0.11723226 0.080412187 0.22234042
-0.11683446 0.080450669 0.22244681
-0.11643622 0.080489144 0.22255319
-0.11598211 0.080489144 0.22255319
-0.11547277 0.080450669 0.22244681
-0.11496387 0.080412187 0.22234042
-0.11440061 0.080335245 0.22212766
-0.1138928 0.08029677 0.22202128
-0.11343977 0.08029677 0.22202128
-0.11298674 0.08029677 0.22202128
-0.11247979 0.080258287 0.22191489
-0.11191957 0.080181345 0.22170213
-0.11130673 0.080065921 0.22138298
-0.11064193 0.079912022 0.22095744
-0.10997886 0.079758123 0.22053191
-0.10937037 0.079642698 0.22021277
-0.10886841 0.079604223 0.22010638
-0.10841929 0.079604223 0.22010638
-0.10797017 0.079604223 0.22010638
-0.10752105 0.079604223 0.22010638
-0.10707194 0.079604223 0.22010638
-0.10662282 0.079604223 0.22010638
-0.10627633 0.079681173 0.22031915
-0.10592897 0.079758123 0.22053191
-0.10547898 0.079758123 0.22053191
-0.10497833 0.079719648 0.22042553
-0.10442767 0.079642698 0.22021277
-0.10387786 0.079565749 0.22
-0.10342896 0.079565749 0.22
-0.10293026 0.079527274 0.21989362
-0.102432 0.079488799 0.21978724
-0.1018848 0.079411849 0.21957447
-0.10128933 0.079296425 0.21925531
-0.10074409 0.079219475 0.21904255
-0.10019971 0.079142526 0.21882978
-0.099704713 0.079104051 0.2187234
-0.099258408 0.079104051 0.2187234
-0.098860174 0.079142526 0.21882978
-0.098461509 0.079181001 0.21893618
-0.098014772 0.079181001 0.21893618
-0.097520627 0.079142526 0.21882978
-0.096885346 0.078988627 0.21840425
-0.096251801 0.078834727 0.21797873
-0.095666751 0.078719303 0.21765958
-0.095082998 0.078603879 0.21734042
-0.094593197 0.078565404 0.21723405
-0.094103836 0.078526929 0.21712767
-0.093660794 0.078526929 0.21712767
-0.093172073 0.078488454 0.21702127
-0.092638344 0.078411505 0.21680851
-0.092105471 0.078334555 0.21659574
-0.091573477 0.078257605 0.21638298
-0.091087155 0.078219131 0.2162766
-0.09064585 0.078219131 0.2162766
-0.090204544 0.078219131 0.2162766
-0.089763239 0.078219131 0.2162766
-0.089321934 0.078219131 0.2162766
-0.088836901 0.078180656 0.21617021
-0.088352315 0.078142181 0.21606383
-0.087868161 0.078103706 0.21595745
-0.08738444 0.078065231 0.21585107
-0.086901143 0.078026757 0.21574467
-0.086418293 0.077988282 0.21563829
-0.08589346 0.077911332 0.21542554
-0.08541169 0.077872857 0.21531914
-0.084972337 0.077872857 0.21531914
-0.084491223 0.077834383 0.21521276
-0.084010541 0.077795908 0.21510638
-0.083488964 0.077718966 0.21489362
-0.082927138 0.077603541 0.21457447
-0.082448408 0.077565067 0.21446809
-0.081970111 0.077526584 0.2143617
-0.081573181 0.077565067 0.21446809
-0.081175812 0.077603541 0.21457447
-0.080737978 0.077603541 0.21457447
-0.080260336 0.077565067 0.21446809
-0.079743527 0.077488109 0.21425532
-0.079188213 0.077372685 0.21393616
-0.078673363 0.077295743 0.21372341
-0.07812044 0.077180311 0.21340425
-0.077607542 0.077103369 0.21319149
-0.077134021 0.077064887 0.2130851
-0.076699227 0.077064887 0.2130851
-0.076340586 0.077141844 0.21329787
-0.075943217 0.077180311 0.21340425
-0.075507775 0.077180311 0.21340425
-0.075034909 0.077141844 0.21329787
-0.074562475 0.077103369 0.21319149
-0.074053481 0.077026412 0.21297872
-0.073582135 0.076987945 0.21287234
-0.073147774 0.076987945 0.21287234
-0.072713412 0.076987945 0.21287234
-0.072279058 0.076987945 0.21287234
-0.071844697 0.076987945 0.21287234
-0.071374655 0.07694947 0.21276596
-0.070905037 0.076910987 0.21265957
-0.070471115 0.076910987 0.21265957
-0.070072226 0.07694947 0.21276596
-0.069672905 0.076987945 0.21287234
-0.069342352 0.077103369 0.21319149
-0.069595039 0.077872857 0.21531914
-0.081196405 0.095686659 0.26457447
-0.080688983 0.095725141 0.26468086
-0.080181122 0.095763609 0.26478723
-0.079640828 0.095763609 0.26478723
-0.05918964 0.075256579 0.2080851
-0.058104094 0.074410133 0.20574468
-0.057505321 0.074179284 0.20510638
-0.05693876 0.07398691 0.20457447
-0.056491941 0.073948435 0.20446809
-0.056074731 0.073948435 0.20446809
-0.055686478 0.07398691 0.20457447
-0.055355277 0.074102335 0.20489362
-0.055079814 0.074294709 0.20542553
-0.054915413 0.074640982 0.20638297
-0.054971822 0.075295053 0.20819148
-0.06592384 0.094686322 0.26180851
-0.065681905 0.095109545 0.26297873
-0.065356128 0.095417343 0.2638298
-0.065026879 0.095725141 0.26468086
-0.064668238 0.095994458 0.26542553
-0.064229451 0.096148357 0.26585105
-0.063737966 0.096225314 0.26606384
-0.063195072 0.096225314 0.26606384
-0.062627129 0.096186832 0.26595744
-0.062084451 0.096186832 0.26595744
-0.061541773 0.096186832 0.26595744
-0.061072294 0.096302256 0.2662766
-0.060649879 0.09649463 0.26680851
-0.060273223 0.096763946 0.26755318
-0.059846029 0.09695632 0.26808509
-0.059369605 0.097071745 0.26840425
-0.058821935 0.097071745 0.26840425
-0.058251172 0.097033277 0.26829788
-0.057680838 0.096994802 0.26819149
-0.057156269 0.097033277 0.26829788
-0.056698594 0.097187176 0.2687234
-0.056239191 0.097341076 0.26914895
-0.055778049 0.097494975 0.26957446
-0.055293374 0.097610399 0.26989362
-0.054785822 0.097687341 0.27010638
-0.054298762 0.097802773 0.27042553
-0.053789251 0.097879715 0.27063829
-0.053299803 0.09799514 0.27095744
-0.052788343 0.098072089 0.2711702
-0.052276015 0.098149046 0.27138299
-0.051742543 0.098187514 0.27148935
-0.051228698 0.098264471 0.27170214
-0.050733816 0.098379888 0.27202126
-0.050257266 0.098533794 0.27244681
-0.049798381 0.098726168 0.27297872
-0.049318135 0.09888006 0.27340424
-0.04885513 0.099072441 0.27393618
-0.048352435 0.099187858 0.27425531
-0.047848444 0.099303283 0.27457446
-0.047306508 0.099341765 0.27468085
-0.04678224 0.099418707 0.27489361
-0.046292879 0.099572614 0.27531916
-0.045837119 0.099803455 0.27595744
-0.045396216 0.10007279 0.27670214
-0.044935029 0.10030363 0.27734041
-0.044454224 0.10049601 0.27787235
-0.043971244 0.10068838 0.27840427
-0.043469507 0.10084227 0.27882978
-0.042916935 0.10088075 0.27893618
-0.042363923 0.10091922 0.27904254
-0.041810483 0.1009577 0.27914894
-0.04124089 0.1009577 0.27914894
-0.040640295 0.10088075 0.27893618
-0.039994724 0.10068838 0.27840427
-0.039306123 0.10038058 0.2775532
-0.038561601 0.09991888 0.27627659
-0.027137937 0.090069354 0.24904256
-0.026561521 0.089838497 0.24840425
-0.025998868 0.089646123 0.24787234
-0.025449328 0.089492224 0.24744681
-0.024922974 0.089415282 0.24723405
-0.024429008 0.089453757 0.24734043
-0.023934608 0.089492224 0.24744681
-0.023449847 0.089569181 0.24765958
-0.022983931 0.08972308 0.24808511
-0.022525914 0.089915454 0.24861702
-0.022065729 0.090107821 0.24914894
-0.021594167 0.09026172 0.24957447
-0.021111881 0.090377152 0.24989362
-0.020654606 0.090607993 0.25053191
-0.020220386 0.090954274 0.25148937
-0.019790594 0.091339014 0.25255319
-0.019348338 0.09168528 0.25351062
-0.018878473 0.091916136 0.25414893
-0.018398317 0.09210851 0.25468084
-0.017930927 0.092377841 0.25542554
-0.017482249 0.092762582 0.25648937
-0.017043298 0.093224272 0.25776595
-0.016605955 0.093724445 0.25914893
-0.016169569 0.094263099 0.2606383
-0.015727105 0.094801746 0.26212767
-0.015297057 0.09545581 0.26393616
-0.014877477 0.096225314 0.26606384
-0.014460675 0.097071745 0.26840425
-0.014034324 0.097918198 0.27074468
-0.013614314 0.09888006 0.27340424
-0.010351452 0.10542077 0.29148936
-0.009835016 0.10626721 0.2938298
-0.0093090283 0.10711365 0.2961702
-0.0087734908 0.1079601 0.29851064
-0.0082342206 0.1088835 0.30106384
-0.0076818382 0.10976841 0.30351064
-0.0071219462 0.11069181 0.30606383
-0.0065426012 0.1114613 0.30819148
-0.0059402841 0.11196147 0.30957446
-0.0053140805 0.11207689 0.30989361
-0.004680146 0.11203843 0.30978724
-0.004043865 0.111923 0.30946809
-0.003414752 0.11199994 0.30968085
-0.0027885945 0.1122308 0.31031916
-0.0021620488 0.11257707 0.31127658
-0.0015315959 0.11292334 0.31223404
-0.0008960166 0.11311571 0.31276596
-0.00025791585 0.1131542 0.31287235
0.00038061905 0.11319266 0.31297871
0.001020281 0.11330809 0.31329787
0.001664063 0.11361589 0.31414893
0.0023152209 0.11411606 0.31553191
0.0029720229 0.11461623 0.31691489
0.003633254 0.11507793 0.3181915
-0.14359365 0.082723074 0.22744681
-0.14299566 0.082645692 0.22723404
-0.14233182 0.082529619 0.2269149
-0.14153625 0.082336165 0.22638299
-0.14080915 0.082181394 0.22595745
-0.14028201 0.082142696 0.22585106
-0.13988703 0.082181394 0.22595745
-0.13949162 0.082220085 0.22606383
-0.13909575 0.082258776 0.22617021
-0.13850385 0.082181394 0.22595745
-0.13784781 0.082065314 0.2256383
-0.13719308 0.081949241 0.22531915
-0.13653965 0.081833161 0.22499999
-0.13595186 0.08175578 0.22478724
-0.1354932 0.08175578 0.22478724
-0.13503453 0.08175578 0.22478724
-0.13457586 0.08175578 0.22478724
-0.13411719 0.08175578 0.22478724
-0.13359526 0.081717089 0.22468086
-0.13307376 0.081678398 0.22457446
-0.13255271 0.081639707 0.22446808
-0.1321573 0.081678398 0.22457446
-0.13176145 0.081717089 0.22468086
-0.131303 0.081717089 0.22468086
-0.13084453 0.081717089 0.22468086
-0.13032435 0.081678398 0.22457446
-0.12968156 0.081562325 0.22425532
-0.12910137 0.081484936 0.22404255
-0.12852205 0.081407554 0.22382979
-0.12800446 0.081368864 0.22372341
-0.12760861 0.081407554 0.22382979
-0.12727275 0.081484936 0.22404255
-0.12693605 0.081562325 0.22425532
-0.12647846 0.081562325 0.22425532
-0.1259013 0.081484936 0.22404255
-0.12526546 0.081368864 0.22372341
-0.12457157 0.0812141 0.22329788
-0.12399767 0.081136711 0.22308511
-0.12348356 0.08109802 0.22297873
-0.12302858 0.08109802 0.22297873
-0.12263208 0.081136711 0.22308511
-0.12217688 0.081136711 0.22308511
-0.12166364 0.08109802 0.22297873
-0.12115083 0.081059329 0.22287235
-0.12063845 0.081020638 0.22276595
-0.12006912 0.080943257 0.22255319
-0.11955784 0.080904566 0.22244681
-0.11899001 0.080827177 0.22223404
-0.11836632 0.080711104 0.22191489
-0.11780046 0.080633722 0.22170213
-0.11729178 0.080595031 0.22159575
-0.11683962 0.080595031 0.22159575
-0.11638746 0.080595031 0.22159575
-0.11599096 0.080633722 0.22170213
-0.11553858 0.080633722 0.22170213
-0.11508621 0.080633722 0.22170213
-0.11452381 0.080556333 0.22148935
-0.11396229 0.080478951 0.2212766
-0.11345622 0.08044026 0.22117022
-0.11300493 0.08044026 0.22117022
-0.11255363 0.08044026 0.22117022
-0.11204842 0.08040157 0.22106382
-0.11148994 0.080324188 0.22085106
-0.11082535 0.080169417 0.22042553
-0.1101625 0.080014654 0.22
-0.10950138 0.079859883 0.21957447
-0.10894769 0.079782501 0.21936171
-0.10844746 0.079743803 0.21925531
-0.10805248 0.079782501 0.21936171
-0.10760488 0.079782501 0.21936171
-0.10720925 0.079821192 0.21946809
-0.10670968 0.079782501 0.21936171
-0.10631362 0.079821192 0.21946809
-0.10591711 0.079859883 0.21957447
-0.10552017 0.079898573 0.21968085
-0.10512281 0.079937272 0.21978724
-0.10467435 0.079937272 0.21978724
-0.10417542 0.079898573 0.21968085
-0.10362671 0.079821192 0.21946809
-0.10312888 0.079782501 0.21936171
-0.10263148 0.079743803 0.21925531
-0.10208494 0.079666428 0.21904255
-0.10158863 0.079627737 0.21893618
-0.10099446 0.079511657 0.21861702
-0.10040159 0.079395577 0.21829787
-0.099858738 0.079318203 0.21808511
-0.099316753 0.079240814 0.21787234
-0.098872192 0.079240814 0.21787234
-0.098427631 0.079240814 0.21787234
-0.09798307 0.079240814 0.21787234
-0.097538508 0.079240814 0.21787234
-0.097046539 0.079202123 0.21776596
-0.096507818 0.079124741 0.2175532
-0.095922977 0.079008661 0.21723405
-0.0953862 0.078931279 0.21702127
-0.094850294 0.078853898 0.21680851
-0.094361581 0.078815207 0.21670213
-0.0938733 0.078776509 0.21659574
-0.093431339 0.078776509 0.21659574
-0.092943713 0.078737818 0.21648936
-0.092365608 0.078621745 0.21617021
-0.091788806 0.078505673 0.21585107
-0.091213308 0.078389592 0.21553192
-0.090728715 0.078350902 0.21542554
-0.090289146 0.078350902 0.21542554
-0.089893945 0.078389592 0.21553192
-0.089454159 0.078389592 0.21553192
-0.089014374 0.078389592 0.21553192
-0.088530876 0.078350902 0.21542554
-0.088047795 0.078312211 0.21531914
-0.087565161 0.07827352 0.21521276
-0.08708296 0.078234829 0.21510638
-0.086601198 0.078196138 0.215
-0.08611986 0.078157447 0.21489362
-0.085596547 0.078080058 0.21468085
-0.085116297 0.078041367 0.21457447
-0.084678464 0.078041367 0.21457447
-0.08419887 0.078002676 0.21446809
-0.083761252 0.078002676 0.21446809
-0.083240971 0.077925295 0.21425532
-0.082721569 0.077847913 0.21404256
-0.082203023 0.077770524 0.21382979
-0.08172603 0.077731833 0.21372341
-0.081330396 0.077770524 0.21382979
-0.080934331 0.077809215 0.21393616
-0.080577865 0.077886604 0.21414894
-0.080140896 0.077886604 0.21414894
-0.079624742 0.077809215 0.21393616
-0.0790307 0.077654451 0.21351063
-0.078477561 0.077538379 0.21319149
-0.077886783 0.077383608 0.21276596
-0.077375181 0.077306226 0.21255319
-0.076864459 0.077228844 0.21234043
-0.076431185 0.077228844 0.21234043
-0.076074056 0.077306226 0.21255319
-0.075678207 0.077344917 0.21265957
-0.075244285 0.077344917 0.21265957
-0.074772939 0.077306226 0.21255319
-0.074302025 0.077267535 0.21244681
-0.073794551 0.077190146 0.21223404
-0.073324725 0.077151455 0.21212766
-0.072855331 0.077112764 0.21202128
-0.072459042 0.077151455 0.21212766
-0.072026208 0.077151455 0.21212766
-0.071629271 0.077190146 0.21223404
-0.071160525 0.077151455 0.21212766
-0.070656747 0.077074073 0.2119149
-0.070189089 0.077035382 0.21180852
-0.069721863 0.076996692 0.21170212
-0.069359533 0.077074073 0.2119149
-0.069030933 0.077190146 0.21223404
-0.068872951 0.07749968 0.2130851
-0.069189854 0.078350902 0.21542554
-0.078699268 0.094524078 0.25989363
-0.078168966 0.094524078 0.25989363
-0.077543318 0.094408005 0.25957447
-0.076698042 0.094021089 0.25851065
-0.059461985 0.07602939 0.20904255
-0.058164179 0.074907333 0.20595744
-0.057505321 0.074597798 0.20510638
-0.05693876 0.074404337 0.20457447
-0.056462549 0.074326955 0.20436171
-0.056045558 0.074326955 0.20436171
-0.055657521 0.074365646 0.20446809
-0.055326536 0.074481726 0.20478724
-0.055079814 0.074713871 0.20542553
-0.05497203 0.075139485 0.20659575
-0.055252723 0.076106779 0.20925532
-0.065173782 0.094137155 0.25882977
-0.064884789 0.094485387 0.25978723
-0.064591885 0.094833612 0.26074469
-0.064295061 0.095181838 0.26170212
-0.06396842 0.095491372 0.26255319
-0.063561201 0.095684826 0.2630851
-0.063100845 0.095800906 0.26340425
-0.062613904 0.095878288 0.26361701
-0.062126111 0.095955677 0.2638298
-0.061637443 0.096033059 0.26404256
-0.061172523 0.096149139 0.26436171
-0.060730699 0.096303895 0.26478723
-0.060311321 0.096497357 0.26531914
-0.05991374 0.09672951 0.26595744
-0.05946606 0.09688428 0.26638299
-0.058993105 0.097000346 0.26670212
-0.05849554 0.097077742 0.2669149
-0.05795091 0.097077742 0.2669149
-0.057429153 0.097116426 0.26702127
-0.056929637 0.097193815 0.26723406
-0.056474138 0.097348578 0.26765957
-0.0560169 0.097503342 0.26808509
-0.055557929 0.097658113 0.26851064
-0.055075429 0.097774193 0.26882979
-0.054591626 0.097890265 0.26914895
-0.054085154 0.097967647 0.2693617
-0.053620104 0.09812241 0.26978722
-0.053132392 0.098238491 0.27010638
-0.052643377 0.098354563 0.27042553
-0.052132566 0.098431945 0.27063829
-0.051600616 0.098470643 0.27074468
-0.051088285 0.098548025 0.27095744
-0.05059493 0.098664097 0.27127659
-0.05013952 0.098857559 0.27180851
-0.049701348 0.099089712 0.27244681
-0.049260568 0.099321865 0.27308512
-0.048798211 0.099515326 0.27361703
-0.048296172 0.099631399 0.27393618
-0.047755752 0.099670082 0.27404255
-0.047196578 0.099670082 0.27404255
-0.046673611 0.099747464 0.27425531
-0.046167664 0.099863544 0.27457446
-0.045713428 0.1000957 0.27521276
-0.045256589 0.10032785 0.27585107
-0.044797137 0.10055999 0.27648935
-0.044301048 0.10071477 0.27691489
-0.043786421 0.10083085 0.27723405
-0.043237317 0.10086953 0.27734041
-0.042655047 0.10083085 0.27723405
-0.042040907 0.10071477 0.27691489
-0.041428071 0.10059869 0.27659574
-0.040769383 0.10036653 0.27595744
-0.040082302 0.100057 0.27510637
-0.028368577 0.08964891 0.24648936
-0.027769411 0.089339375 0.2456383
-0.027220957 0.089184605 0.24521276
-0.026709016 0.089145914 0.24510638
-0.026208885 0.089145914 0.24510638
-0.025719911 0.089184605 0.24521276
-0.025252387 0.089300685 0.24553192
-0.024783559 0.089416765 0.24585107
-0.024323938 0.089571528 0.2462766
-0.023862578 0.089726299 0.24670213
-0.023389408 0.089842364 0.24702127
-0.022934649 0.090035826 0.24755318
-0.022487359 0.090267979 0.24819149
-0.022028042 0.09046144 0.2487234
-0.021566553 0.090654895 0.24925531
-0.021111881 0.090887047 0.24989362
-0.020663377 0.091157891 0.25063831
-0.020246046 0.091583505 0.25180852
-0.019832274 0.092047803 0.25308511
-0.019397056 0.092434719 0.25414893
-0.018941691 0.092744254 0.255
-0.018467484 0.092976406 0.2556383
-0.018005608 0.093285941 0.25648937
-0.017569261 0.093750238 0.25776595
-0.01714881 0.094330624 0.25936171
-0.01672866 0.094949692 0.26106384
-0.016308164 0.095607445 0.26287234
-0.015886672 0.096303895 0.26478723
-0.015488194 0.097193815 0.26723406
-0.015097575 0.0981998 0.27000001
-0.014707132 0.099283166 0.27297872
-0.013062706 0.10392618 0.28574467
-0.012609748 0.10500956 0.28872341
-0.012122487 0.10589947 0.29117021
-0.011599969 0.10655724 0.29297873
-0.011058085 0.10709891 0.29446808
-0.010506345 0.1076019 0.29585105
-0.0099489614 0.10810489 0.29723403
-0.0093926229 0.10868528 0.29882979
-0.008832898 0.10930435 0.30053192
-0.0082662264 0.10992342 0.30223405
-0.0076953005 0.11058117 0.30404255
-0.0071169953 0.11123894 0.30585107
-0.0065267924 0.11181931 0.30744681
-0.0059178299 0.11216754 0.30840427
-0.0052903653 0.11220623 0.30851063
-0.0046576452 0.11212885 0.30829787
-0.0040271836 0.11209016 0.30819148
-0.0034006755 0.11216754 0.30840427
-0.0027780787 0.11243838 0.30914894
-0.0021531819 0.11274792 0.31
-0.001524812 0.11305745 0.31085107
-0.00089174981 0.11321221 0.31127658
-0.00025660038 0.11321221 0.31127658
0.00037854907 0.11321221 0.31127658
0.0010143915 0.11328961 0.31148937
0.0016539197 0.11356045 0.31223404
0.0022980482 0.11390868 0.3131915
0.002948079 0.11433428 0.31436169
0.0036004563 0.11468251 0.31531915
0.0042567407 0.11503074 0.31627661
0.0049119852 0.11526288 0.31691489
0.0055661038 0.11541765 0.31734043
0.0062157088 0.11545634 0.3174468
0.0068657487 0.11549503 0.31755319
0.0075187394 0.11557242 0.31776595
0.0081862705 0.11584327 0.31851065
-0.14319067 0.082953721 0.2268085
-0.14266093 0.082914814 0.22670212
-0.14193144 0.082759172 0.22627659
-0.14113718 0.08256463 0.22574468
-0.14041138 0.082408994 0.22531915
-0.13981947 0.082331181 0.22510639
-0.13942601 0.082370088 0.22521277
-0.13909775 0.082447901 0.22542553
-0.13870321 0.082486816 0.22553192
-0.13804738 0.082370088 0.22521277
-0.13732788 0.082214452 0.22478724
-0.13654535 0.08201991 0.22425532
-0.13589408 0.081903182 0.22393617
-0.1353728 0.081864275 0.22382979
-0.1349802 0.081903182 0.22393617
-0.13458718 0.081942089 0.22404255
-0.13419372 0.081980996 0.22414893
-0.13373634 0.081980996 0.22414893
-0.13327898 0.081980996 0.22414893
-0.13275857 0.081942089 0.22404255
-0.13230142 0.081942089 0.22404255
-0.13184427 0.081942089 0.22404255
-0.13138711 0.081942089 0.22404255
-0.13086779 0.081903182 0.22393617
-0.13034892 0.081864275 0.22382979
-0.12970699 0.081747547 0.22351064
-0.12906636 0.081630819 0.22319148
-0.12848835 0.081553005 0.22297873
-0.12797229 0.081514098 0.22287235
-0.12751752 0.081514098 0.22287235
-0.12706275 0.081514098 0.22287235
-0.12672886 0.081591912 0.22308511
-0.12639409 0.081669733 0.22329788
-0.12593846 0.081669733 0.22329788
-0.12536326 0.081591912 0.22308511
-0.12472937 0.081475183 0.22276595
-0.12409679 0.081358463 0.22244681
-0.12358375 0.081319548 0.22234042
-0.12313008 0.081319548 0.22234042
-0.12267639 0.081319548 0.22234042
-0.1222812 0.081358463 0.22244681
-0.12182731 0.081358463 0.22244681
-0.12131536 0.081319548 0.22234042
-0.12074603 0.081241734 0.22212766
-0.12017756 0.081163913 0.22191489
-0.11966736 0.081125006 0.22180851
-0.11915759 0.081086099 0.22170213
-0.11859129 0.081008278 0.22148935
-0.11796913 0.08089155 0.22117022
-0.1174613 0.080852643 0.22106382
-0.11689761 0.080774821 0.22085106
-0.11644697 0.080774821 0.22085106
-0.11594046 0.080735914 0.22074468
-0.11549004 0.080735914 0.22074468
-0.11509506 0.080774821 0.22085106
-0.11464442 0.080774821 0.22085106
-0.11413877 0.080735914 0.22074468
-0.11363357 0.080697007 0.2206383
-0.11307421 0.080619186 0.22042553
-0.11262444 0.080619186 0.22042553
-0.11217467 0.080619186 0.22042553
-0.11161706 0.080541372 0.22021277
-0.1110066 0.080424644 0.21989362
-0.11039746 0.080307916 0.21957447
-0.10973634 0.080152281 0.21914893
-0.10913002 0.080035552 0.21882978
-0.10857783 0.079957739 0.21861702
-0.10807914 0.079918832 0.21851064
-0.10768567 0.079957739 0.21861702
-0.10729177 0.079996645 0.2187234
-0.10689744 0.080035552 0.21882978
-0.10639918 0.079996645 0.2187234
-0.10590135 0.079957739 0.21861702
-0.10545526 0.079957739 0.21861702
-0.10506028 0.079996645 0.2187234
-0.10466486 0.080035552 0.21882978
-0.10421835 0.080035552 0.21882978
-0.10372139 0.079996645 0.2187234
-0.10322486 0.079957739 0.21861702
-0.10272877 0.079918832 0.21851064
-0.1021833 0.07984101 0.21829787
-0.1016883 0.079802103 0.21819149
-0.10119373 0.079763196 0.21808511
-0.10065044 0.079685375 0.21787234
-0.10005909 0.079568654 0.2175532
-0.099469051 0.079451926 0.21723405
-0.098928794 0.079374105 0.21702127
-0.098437697 0.079335198 0.21691489
-0.097947031 0.079296291 0.21680851
-0.097504638 0.079296291 0.21680851
-0.097014621 0.079257376 0.21670213
-0.096572451 0.079257376 0.21670213
-0.096083082 0.07921847 0.21659574
-0.095547177 0.079140656 0.21638298
-0.095058896 0.079101741 0.2162766
-0.09461759 0.079101741 0.2162766
-0.094129957 0.079062834 0.21617021
-0.093688868 0.079062834 0.21617021
-0.093201898 0.079023927 0.21606383
-0.092669681 0.078946106 0.21585107
-0.092092879 0.078829378 0.21553192
-0.091472134 0.078673743 0.21510638
-0.090898156 0.078557014 0.21478723
-0.090415083 0.078518108 0.21468085
-0.089932449 0.078479201 0.21457447
-0.089494616 0.078479201 0.21457447
-0.089100935 0.078518108 0.21468085
-0.088662885 0.078518108 0.21468085
-0.088181123 0.078479201 0.21457447
-0.087699786 0.078440294 0.21446809
-0.087218888 0.078401379 0.2143617
-0.086738423 0.078362472 0.21425532
-0.086301237 0.078362472 0.21425532
-0.085821427 0.078323565 0.21414894
-0.08534205 0.078284658 0.21404256
-0.084863096 0.078245744 0.21393616
-0.08438459 0.078206837 0.21382979
-0.083948277 0.078206837 0.21382979
-0.083511963 0.078206837 0.21382979
-0.083034322 0.07816793 0.21372341
-0.082515992 0.078090109 0.21351063
-0.081998542 0.078012295 0.21329787
-0.081522636 0.077973388 0.21319149
-0.081128083 0.078012295 0.21329787
-0.080733106 0.078051202 0.21340425
-0.08037772 0.078129023 0.21361703
-0.079941839 0.078129023 0.21361703
-0.079426773 0.078051202 0.21340425
-0.078873195 0.077934474 0.2130851
-0.07828176 0.077778839 0.21265957
-0.077692062 0.077623203 0.21223404
-0.077142827 0.077506483 0.2119149
-0.076671913 0.077467576 0.21180852
-0.076239727 0.077467576 0.21180852
-0.075845614 0.077506483 0.2119149
-0.075451061 0.07754539 0.21202128
-0.075056084 0.077584296 0.21212766
-0.074585818 0.07754539 0.21202128
-0.074078783 0.077467576 0.21180852
-0.073572613 0.077389754 0.21159574
-0.073104091 0.077350847 0.21148936
-0.072636001 0.077311933 0.21138299
-0.072204679 0.077311933 0.21138299
-0.071809478 0.077350847 0.21148936
-0.07137794 0.077350847 0.21148936
-0.070946403 0.077350847 0.21148936
-0.070443921 0.077273026 0.21127659
-0.069942318 0.077195212 0.21106383
-0.069511652 0.077195212 0.21106383
-0.069115795 0.077234119 0.21117021
-0.068754122 0.077311933 0.21138299
-0.068563491 0.077584296 0.21212766
-0.068472333 0.077973388 0.21319149
-0.077802591 0.093342386 0.25521275
-0.077346273 0.093420215 0.25542554
-0.07682509 0.093420215 0.25542554
-0.076208562 0.093303487 0.25510639
-0.07534083 0.092875488 0.25393617
-0.074195765 0.092097312 0.25180852
-0.05952251 0.076533757 0.20925532
-0.058194228 0.07536649 0.20606384
-0.057505321 0.075016312 0.20510638
-0.05693876 0.074821763 0.20457447
-0.056462549 0.074743949 0.20436171
-0.056016378 0.074705034 0.20425531
-0.055628564 0.074743949 0.20436171
-0.055297792 0.07486067 0.20468085
-0.055108339 0.075171947 0.20553191
-0.055085257 0.075716674 0.20702128
-0.064945795 0.093575843 0.25585106
-0.064798765 0.09412057 0.25734043
-0.064512804 0.094470747 0.25829786
-0.064196579 0.094782017 0.25914893
-0.063903026 0.095132202 0.26010638
-0.063605562 0.095482387 0.26106384
-0.063201375 0.095676929 0.26159576
-0.062744051 0.095793642 0.26191488
-0.062285423 0.09591037 0.26223403
-0.061825499 0.096027099 0.26255319
-0.061364271 0.096143827 0.26287234
-0.060926359 0.096299469 0.26329789
-0.060486704 0.096455097 0.2637234
-0.060069498 0.096649647 0.26425532
-0.059650119 0.096844189 0.26478723
-0.059204828 0.096999831 0.26521277
-0.058757789 0.097155459 0.26563829
-0.058285709 0.097272187 0.26595744
-0.057812326 0.097388916 0.2662766
-0.057314754 0.09746673 0.26648936
-0.056838982 0.097583458 0.26680851
-0.056384355 0.0977391 0.26723406
-0.055927984 0.097894728 0.26765957
-0.055469882 0.098050356 0.26808509
-0.054988246 0.098167084 0.26840425
-0.054483738 0.098244913 0.26861703
-0.053978354 0.098322727 0.26882979
-0.053514387 0.098478362 0.26925531
-0.05302776 0.09859509 0.26957446
-0.052560542 0.098750725 0.27000001
-0.052050602 0.098828547 0.27021277
-0.05153979 0.098906361 0.27042553
-0.05102811 0.098984174 0.27063829
-0.050535407 0.099100903 0.27095744
-0.050061025 0.099256545 0.27138299
-0.049623717 0.099489987 0.27202126
-0.049183808 0.099723443 0.27265957
-0.048741292 0.0999569 0.27329788
-0.048221149 0.10003471 0.27351063
-0.0476816 0.10007363 0.27361703
-0.04710497 0.10003471 0.27351063
-0.04654688 0.10003471 0.27351063
-0.046024565 0.10011253 0.27372339
-0.045536727 0.10026817 0.27414894
-0.045082055 0.10050163 0.27478725
-0.044573065 0.10061835 0.27510637
-0.04402874 0.10065726 0.27521276
-0.043399971 0.10050163 0.27478725
-0.042723179 0.10022926 0.27404255
-0.042000327 0.099840172 0.27297872
-0.030170599 0.089529321 0.24478723
-0.029593751 0.089295872 0.24414894
-0.029032184 0.089101329 0.24361703
-0.028497709 0.088984601 0.24329787
-0.027964536 0.088867873 0.24297872
-0.027456719 0.088828959 0.24287234
-0.026984766 0.08890678 0.2430851
-0.026523536 0.089023508 0.24340425
-0.026061004 0.089140236 0.24372341
-0.025608329 0.089295872 0.24414894
-0.025153916 0.089451507 0.24457447
-0.024719214 0.089684956 0.24521276
-0.02428191 0.089918412 0.24585107
-0.023831708 0.090112954 0.24638298
-0.023379337 0.090307496 0.24691489
-0.022924794 0.090502039 0.24744681
-0.02247772 0.090735495 0.24808511
-0.022028042 0.090968952 0.2487234
-0.021575758 0.091202408 0.24936171
-0.021129858 0.091474771 0.25010639
-0.020707229 0.091863856 0.25117022
-0.020314474 0.092408583 0.25265959
-0.019923976 0.092992216 0.25425532
-0.019510727 0.093498029 0.2556383
-0.019076031 0.093926027 0.25680852
-0.018613502 0.094237298 0.25765958
-0.018162439 0.094626382 0.25872341
-0.017736036 0.095171116 0.26021278
-0.017338725 0.09591037 0.26223403
-0.0169468 0.096727461 0.26446807
-0.016539158 0.097505644 0.26659575
-0.016141983 0.098400541 0.26904255
-0.015759483 0.099451087 0.2719149
-0.014181136 0.10415906 0.28478724
-0.013737206 0.1052096 0.28765959
-0.013281553 0.10626014 0.2905319
-0.012804888 0.10723286 0.29319149
-0.012290794 0.10797213 0.29521278
-0.01174739 0.10851685 0.29670212
-0.011173939 0.10882812 0.29755318
-0.010593237 0.10910049 0.29829788
-0.010005935 0.10933393 0.29893616
-0.0094227158 0.1096452 0.29978722
-0.0088391509 0.10999539 0.30074468
-0.0082574971 0.11042339 0.3019149
-0.0076683755 0.11081248 0.30297872
-0.007079863 0.11127938 0.30425531
-0.0064838827 0.11170737 0.30542552
-0.0058749616 0.11197975 0.30617023
-0.0052538803 0.11205756 0.30638298
-0.004630323 0.11209647 0.30648935
-0.0040077223 0.11217429 0.30670214
-0.0033877718 0.11236883 0.30723405
-0.0027666071 0.11260229 0.30787235
-0.0021443148 0.11291355 0.30872339
-0.0015175062 0.11314701 0.3093617
-0.00088748313 0.11330265 0.30978724
-0.00025537264 0.11330265 0.30978724
0.00037660848 0.11326373 0.30968085
0.0010091948 0.11334155 0.30989361
0.0016443399 0.11353609 0.31042552
0.0022839974 0.11384737 0.31127658
0.0029271282 0.11415864 0.31212765
0.0035725175 0.114431 0.31287235
0.0042209458 0.11470336 0.31361702
0.0048724124 0.11497572 0.31436169
0.0055231866 0.11517026 0.3148936
0.0061719655 0.11528699 0.31521276
0.0068151467 0.11528699 0.31521276
0.0074608452 0.11532591 0.31531915
0.008109712 0.11540372 0.31553191
0.0087830564 0.11579281 0.31659573
0.009473417 0.11633754 0.3180851
-0.14272054 0.083142638 0.22606383
-0.14219232 0.083103508 0.22595745
-0.14153108 0.082986131 0.2256383
-0.14073811 0.082790501 0.22510639
-0.14001362 0.082634002 0.22468086
-0.13935693 0.082516618 0.2243617
-0.13896498 0.082555741 0.22446808
-0.13863826 0.082634002 0.22468086
-0.13824522 0.082673125 0.22478724
-0.13765612 0.082594872 0.22457446
-0.13687293 0.082399242 0.22404255
-0.13602714 0.082164489 0.22340426
-0.13537762 0.082047105 0.22308511
-0.13485807 0.082007982 0.22297873
-0.13446721 0.082047105 0.22308511
-0.13407592 0.082086235 0.22319148
-0.13374789 0.082164489 0.22340426
-0.13329205 0.082164489 0.22340426
-0.13289945 0.082203612 0.22351064
-0.13244338 0.082203612 0.22351064
-0.13198732 0.082203612 0.22351064
-0.13146865 0.082164489 0.22340426
-0.13095042 0.082125366 0.22329788
-0.13037044 0.082047105 0.22308511
-0.12972938 0.081929728 0.22276595
-0.12908964 0.081812352 0.22244681
-0.1285127 0.081734098 0.22223404
-0.12793663 0.081655852 0.22202128
-0.12742251 0.081616722 0.22191489
-0.12696971 0.081616722 0.22191489
-0.12651689 0.081616722 0.22191489
-0.12612453 0.081655852 0.22202128
-0.12579192 0.081734098 0.22223404
-0.12533846 0.081734098 0.22223404
-0.12482522 0.081694975 0.22212766
-0.12419329 0.081577599 0.22180851
-0.123622 0.081499346 0.22159575
-0.1231107 0.081460215 0.22148935
-0.12271769 0.081499346 0.22159575
-0.12232422 0.081538469 0.22170213
-0.12193032 0.081577599 0.22180851
-0.12141947 0.081538469 0.22170213
-0.12090905 0.081499346 0.22159575
-0.1202834 0.081381969 0.2212766
-0.11977428 0.081342846 0.22117022
-0.1192082 0.081264585 0.22095744
-0.11870017 0.081225462 0.22085106
-0.11819257 0.081186339 0.22074468
-0.11762866 0.081108086 0.22053191
-0.11706562 0.081029832 0.22031915
-0.11650345 0.080951579 0.22010638
-0.11599824 0.080912456 0.22
-0.11549346 0.080873333 0.21989362
-0.11504477 0.080873333 0.21989362
-0.11465153 0.080912456 0.22
-0.11425785 0.080951579 0.22010638
-0.11380873 0.080951579 0.22010638
-0.11325003 0.080873333 0.21989362
-0.11274678 0.080834202 0.21978724
-0.11224395 0.080795079 0.21968085
-0.11179569 0.080795079 0.21968085
-0.1112396 0.080716826 0.21946809
-0.11063068 0.08059945 0.21914893
-0.10996956 0.080442943 0.2187234
-0.10936345 0.080325566 0.21840425
-0.10875865 0.08020819 0.21808511
-0.10815515 0.080090813 0.21776596
-0.1077108 0.080090813 0.21776596
-0.10731886 0.080129936 0.21787234
-0.10697867 0.08020819 0.21808511
-0.10653367 0.08020819 0.21808511
-0.10603692 0.080169067 0.21797873
-0.10548908 0.080090813 0.21776596
-0.10499342 0.080051683 0.21765958
-0.10454929 0.080051683 0.21765958
-0.10410517 0.080051683 0.21765958
-0.10366104 0.080051683 0.21765958
-0.10321691 0.080051683 0.21765958
-0.10272256 0.08001256 0.2175532
-0.10222863 0.079973429 0.2174468
-0.10173514 0.079934306 0.21734042
-0.10124208 0.079895183 0.21723405
-0.10074946 0.07985606 0.21712767
-0.10020813 0.0797778 0.21691489
-0.099667661 0.079699554 0.21670213
-0.099079356 0.079582177 0.21638298
-0.098540843 0.079503916 0.21617021
-0.098051473 0.079464793 0.21606383
-0.097514488 0.079386547 0.21585107
-0.097026199 0.079347417 0.21574467
-0.096538357 0.079308294 0.21563829
-0.096050948 0.079269163 0.21553192
-0.095611162 0.079269163 0.21553192
-0.095171377 0.079269163 0.21553192
-0.094731592 0.079269163 0.21553192
-0.094291806 0.079269163 0.21553192
-0.093898341 0.079308294 0.21563829
-0.093412235 0.079269163 0.21553192
-0.092880666 0.07919091 0.21531914
-0.092349969 0.079112664 0.21510638
-0.091774687 0.07899528 0.21478723
-0.091155462 0.078838781 0.2143617
-0.090583012 0.078721404 0.21404256
-0.09005665 0.078643151 0.21382979
-0.089620337 0.078643151 0.21382979
-0.089184023 0.078643151 0.21382979
-0.08874771 0.078643151 0.21382979
-0.088311397 0.078643151 0.21382979
-0.087831371 0.078604028 0.21372341
-0.087308265 0.078525774 0.21351063
-0.08682932 0.078486644 0.21340425
-0.086436942 0.078525774 0.21351063
-0.086001284 0.078525774 0.21351063
-0.085608259 0.078564905 0.21361703
-0.085087545 0.078486644 0.21340425
-0.084609903 0.078447521 0.21329787
-0.08409071 0.078369267 0.2130851
-0.083655916 0.078369267 0.2130851
-0.083221123 0.078369267 0.2130851
-0.082786329 0.078369267 0.2130851
-0.082310423 0.078330144 0.21297872
-0.081753157 0.07821276 0.21265957
-0.081278555 0.078173637 0.21255319
-0.080885306 0.07821276 0.21265957
-0.080491632 0.078251891 0.21276596
-0.080137543 0.078330144 0.21297872
-0.079702966 0.078330144 0.21297872
-0.079189204 0.078251891 0.21276596
-0.078636929 0.078134514 0.21244681
-0.078046799 0.077978007 0.21202128
-0.077458404 0.077821508 0.21159574
-0.076910466 0.077704124 0.21127659
-0.076440856 0.077665001 0.21117021
-0.076048262 0.077704124 0.21127659
-0.075655237 0.077743255 0.21138299
-0.075261772 0.077782378 0.21148936
-0.074867874 0.077821508 0.21159574
-0.074398696 0.077782378 0.21148936
