# .PCD v0.7 - Point Cloud Data file format
VERSION 0.7
FIELDS x y z
SIZE 4 4 4
TYPE F F F
COUNT 1 1 1
WIDTH 1401
HEIGHT 1
VIEWPOINT 0 0 0 1 0 0 0
POINTS 1401
DATA ascii
-0.17649679 0.12300932 0.28138298
-0.17612217 0.12314884 0.28170213
-0.17561367 0.12319534 0.28180853
-0.17510472 0.12324184 0.28191489
-0.17466119 0.12333485 0.28212765
-0.17408553 0.12333485 0.28212765
-0.173379 0.12324184 0.28191489
-0.17247772 0.12300932 0.28138298
-0.17164361 0.12282329 0.28095746
-0.17100555 0.12277678 0.28085107
-0.17062615 0.1229163 0.28117022
-0.17037414 0.12314884 0.28170213
-0.17011996 0.12338136 0.28223404
-0.16992751 0.12366041 0.28287235
-0.16960506 0.12384643 0.28329787
-0.16915394 0.12393943 0.28351063
-0.16857545 0.12393943 0.28351063
-0.16793393 0.12389293 0.28340426
-0.16735566 0.12389293 0.28340426
-0.16677737 0.12389293 0.28340426
-0.1661991 0.12389293 0.28340426
-0.16568299 0.12393943 0.28351063
-0.16516644 0.12398595 0.28361702
-0.16477294 0.12412547 0.28393617
-0.16437814 0.12426499 0.28425533
-0.16404332 0.124451 0.28468084
-0.16382895 0.12473005 0.28531915
-0.16367283 0.12505558 0.28606382
-0.16345304 0.12533464 0.28670213
-0.16310978 0.12552066 0.28712767
-0.16252391 0.12552066 0.28712767
-0.16181801 0.12542763 0.28691489
-0.16117281 0.12538114 0.28680852
-0.16058758 0.12538114 0.28680852
-0.159943 0.12533464 0.28670213
-0.15906234 0.1251021 0.28617021
-0.1579482 0.12468354 0.28521276
-0.15654448 0.12403246 0.28372341
-0.15508835 0.12333485 0.28212765
-0.15375526 0.12273027 0.28074467
-0.1525439 0.1222187 0.27957445
-0.15139516 0.12175364 0.27851063
-0.15036598 0.12138159 0.27765957
-0.14968464 0.12128858 0.27744681
-0.14957593 0.12166063 0.27829787
-0.15003335 0.12249774 0.28021276
-0.15070996 0.12352089 0.2825532
-0.15132046 0.12449752 0.28478724
-0.15180923 0.12538114 0.28680852
-0.15200929 0.12603222 0.28829786
-0.15203565 0.12654379 0.28946808
-0.15183462 0.12686935 0.29021278
-0.15151966 0.12710188 0.29074469
-0.15109205 0.12724139 0.29106382
-0.15066317 0.12738091 0.29138297
-0.15028778 0.12756693 0.29180852
-0.14991064 0.12775296 0.29223403
-0.14953177 0.12793899 0.29265958
-0.14909703 0.12807851 0.29297873
-0.14866099 0.12821802 0.29329789
-0.14806251 0.12821802 0.29329789
-0.14746405 0.12821802 0.29329789
-0.14675903 0.12812501 0.2930851
-0.14610796 0.12807851 0.29297873
-0.14556298 0.12812501 0.2930851
-0.14517543 0.12831104 0.29351065
-0.14478613 0.12849706 0.29393616
-0.14434291 0.12863658 0.29425532
-0.14389841 0.1287761 0.29457447
-0.14340083 0.12886912 0.29478723
-0.14295393 0.12900864 0.29510638
-0.14255705 0.12919466 0.29553193
-0.14210731 0.12933417 0.29585105
-0.14165629 0.12947369 0.2961702
-0.14115331 0.12956671 0.29638299
-0.14064944 0.12965973 0.29659575
-0.14014471 0.12975274 0.29680851
-0.1395891 0.12979925 0.29691491
-0.13908283 0.12989226 0.29712766
-0.13867487 0.13007827 0.29755318
-0.13831455 0.1303108 0.29808509
-0.13795204 0.13054335 0.29861704
-0.1374895 0.13068286 0.29893616
-0.13697697 0.13077588 0.29914895
-0.13646355 0.13086888 0.29936171
-0.13599755 0.13100842 0.29968086
-0.13562636 0.13124093 0.30021277
-0.13520515 0.13142696 0.30063829
-0.13468698 0.13151999 0.30085108
-0.13407309 0.13151999 0.30085108
-0.1335064 0.13156648 0.30095744
-0.13298626 0.13165949 0.3011702
-0.132512 0.13179901 0.30148935
-0.132083 0.13198504 0.3019149
-0.13165224 0.13217106 0.30234042
-0.13117364 0.13231058 0.30265957
-0.13060197 0.13235709 0.30276597
-0.12984717 0.13221757 0.30244681
-0.12909366 0.13207805 0.30212766
-0.12834147 0.13193853 0.30180851
-0.12772563 0.13193853 0.30180851
-0.12724422 0.13207805 0.30212766
-0.12680608 0.13226408 0.30255318
-0.12623312 0.13231058 0.30265957
-0.1256597 0.13235709 0.30276597
-0.12512979 0.1324501 0.30297872
-0.12468643 0.13263613 0.30340424
-0.12432837 0.13291517 0.30404255
-0.12401098 0.13324071 0.30478725
-0.12356134 0.13342674 0.30521277
-0.12298141 0.13347325 0.30531916
-0.12235842 0.13347325 0.30531916
-0.12177784 0.13351975 0.30542552
-0.12123902 0.13361275 0.30563828
-0.12069935 0.13370578 0.30585107
-0.12007527 0.13370578 0.30585107
-0.11924345 0.13347325 0.30531916
-0.11820714 0.13300817 0.30425531
-0.11713407 0.13249661 0.30308512
-0.11602487 0.13193853 0.30180851
-0.11504292 0.13151999 0.30085108
-0.1141458 0.13119443 0.30010638
-0.11337246 0.13100842 0.29968086
-0.1126809 0.13091539 0.29946807
-0.11199024 0.13082238 0.29925531
-0.11122124 0.13063636 0.29882979
-0.11037522 0.13035731 0.29819149
-0.10949265 0.13003178 0.29744682
-0.10872994 0.12984574 0.29702127
-0.10808516 0.12979925 0.29691491
-0.10751782 0.12984574 0.29702127
-0.10687347 0.12979925 0.29691491
-0.1061534 0.12965973 0.29659575
-0.10535891 0.12942719 0.29606384
-0.1045666 0.12919466 0.29553193
-0.1038513 0.12905514 0.29521278
-0.10317452 0.12896211 0.29499999
-0.1024986 0.12886912 0.29478723
-0.10178678 0.1287296 0.29446808
-0.10103971 0.12854357 0.29404256
-0.10029436 0.12835754 0.29361701
-0.099550769 0.12817152 0.29319149
-0.098808892 0.12798549 0.29276595
-0.098068774 0.12779947 0.29234043
-0.097330377 0.12761344 0.29191488
-0.096593723 0.12742741 0.29148936
-0.095893838 0.12728789 0.29117021
-0.095264897 0.12724139 0.29106382
-0.094636396 0.12719488 0.29095745
-0.094008312 0.12714837 0.29085106
-0.093278177 0.12696236 0.29042554
-0.092515819 0.12672983 0.28989363
-0.091789365 0.12654379 0.28946808
-0.091031127 0.12631126 0.28893617
-0.090341665 0.12617174 0.28861701
-0.089653499 0.12603222 0.28829786
-0.088966645 0.1258927 0.28797871
-0.088248447 0.12570669 0.28755319
-0.087531984 0.12552066 0.28712767
-0.086817242 0.12533464 0.28670213
-0.086168244 0.12524162 0.28648937
-0.085551888 0.12519512 0.28638297
-0.08490441 0.1251021 0.28617021
-0.084289141 0.12505558 0.28606382
-0.083643183 0.12496258 0.28585106
-0.083029002 0.12491607 0.28574467
-0.082353868 0.12477656 0.28542554
-0.081619069 0.12454402 0.2848936
-0.080916718 0.124358 0.28446808
-0.080216102 0.12417198 0.28404257
-0.079517208 0.12398595 0.28361702
-0.078820065 0.12379993 0.2831915
-0.07812465 0.12361389 0.28276595
-0.077460147 0.12347437 0.2824468
-0.076767996 0.12328836 0.28202128
-0.076106317 0.12314884 0.28170213
-0.075445943 0.12300932 0.28138298
-0.074786864 0.12286979 0.28106382
-0.074129097 0.12273027 0.28074467
-0.073500499 0.12263726 0.28053191
-0.072900429 0.12259075 0.28042552
-0.072300792 0.12254425 0.28031915
-0.071647145 0.12240473 0.28
-0.070994802 0.12226521 0.27968085
-0.070370547 0.1221722 0.27946809
-0.069800302 0.1221722 0.27946809
-0.069282763 0.12226521 0.27968085
-0.068764351 0.12235822 0.27989361
-0.068167329 0.12231172 0.27978724
-0.067442216 0.12203268 0.27914894
-0.066643253 0.12161412 0.27819148
-0.065873466 0.12124207 0.27734041
-0.065207362 0.12105605 0.27691489
-0.064642332 0.12105605 0.27691489
-0.064151146 0.12119557 0.27723405
-0.063609853 0.12124207 0.27734041
-0.06299559 0.12114906 0.27712765
-0.062334258 0.12096304 0.27670214
-0.061627164 0.120684 0.27606383
-0.060922675 0.12040495 0.27542552
-0.060220797 0.12012593 0.27478725
-0.059590813 0.11998641 0.27446809
-0.058939245 0.11980037 0.27404255
-0.058266755 0.11956784 0.27351063
-0.057596438 0.11933531 0.27297872
-0.056928288 0.11910278 0.27244681
-0.05628432 0.11891675 0.27202126
-0.05568568 0.11882374 0.27180851
-0.055131063 0.11882374 0.27180851
-0.054576449 0.11882374 0.27180851
-0.054042976 0.11887025 0.2719149
-0.053446293 0.11877724 0.27170214
-0.052829765 0.11863772 0.27138299
-0.052173555 0.11840519 0.27085108
-0.051560067 0.11826567 0.27053192
-0.050967939 0.11817266 0.27031916
-0.050396521 0.11812615 0.27021277
-0.049825534 0.11807963 0.27010638
-0.049235579 0.11798663 0.26989362
-0.048646491 0.11789361 0.26968086
-0.048058271 0.11780061 0.2694681
-0.047489673 0.11775409 0.2693617
-0.04692151 0.11770759 0.26925531
-0.046317138 0.11756806 0.26893616
-0.045695964 0.11738204 0.26851064
-0.045040753 0.117103 0.26787233
-0.044405814 0.11687047 0.26734042
-0.043807957 0.11673095 0.26702127
-0.043245874 0.11668445 0.2669149
-0.042701244 0.11668445 0.2669149
-0.042156611 0.11668445 0.2669149
-0.041595396 0.11663795 0.26680851
-0.041018248 0.11654493 0.26659575
-0.040458113 0.11649842 0.26648936
-0.039898422 0.11645193 0.26638299
-0.039354876 0.11645193 0.26638299
-0.038780324 0.1163589 0.2661702
-0.038191367 0.11621938 0.26585105
-0.037588645 0.11603336 0.26542553
-0.037002508 0.11589384 0.26510638
-0.036461566 0.11589384 0.26510638
-0.035920627 0.11589384 0.26510638
-0.035379685 0.11589384 0.26510638
-0.034782827 0.11570782 0.26468086
-0.034160174 0.11542878 0.26404256
-0.033526581 0.11510324 0.26329789
-0.032922681 0.1148707 0.26276594
-0.032360293 0.11477768 0.26255319
-0.031811669 0.11473119 0.26244682
-0.031250797 0.11463816 0.26223403
-0.03070326 0.11459167 0.26212767
-0.030143907 0.11449865 0.26191488
-0.029609479 0.11449865 0.26191488
-0.029063243 0.11445215 0.26180851
-0.028505847 0.11435913 0.26159576
-0.027926566 0.11417311 0.26117021
-0.027337866 0.11394057 0.2606383
-0.026762279 0.11375456 0.26021278
-0.026188426 0.11356852 0.25978723
-0.025626816 0.113429 0.25946808
-0.025056222 0.11324298 0.25904256
-0.024487361 0.11305695 0.25861701
-0.02392024 0.11287093 0.2581915
-0.023383768 0.11282442 0.2580851
-0.022857154 0.11282442 0.2580851
-0.022321338 0.11277792 0.25797874
-0.021785952 0.11273141 0.25787234
-0.021251 0.1126849 0.25776595
-0.020716486 0.1126384 0.25765958
-0.020182403 0.11259189 0.25755319
-0.019640636 0.11249888 0.25734043
-0.019091835 0.11235936 0.25702128
-0.018544335 0.11221984 0.25670213
-0.018005608 0.11212683 0.25648937
-0.017474998 0.11208031 0.25638297
-0.016937789 0.11198731 0.25617021
-0.016394632 0.11184779 0.25585106
-0.015852777 0.11170827 0.25553191
-0.015305842 0.11152224 0.25510639
-0.014766809 0.11138272 0.25478724
-0.014229078 0.1112432 0.25446808
-0.013704112 0.11119669 0.25436169
-0.013179582 0.1111502 0.25425532
-0.012655484 0.11110368 0.25414893
-0.012126742 0.11101067 0.25393617
-0.012320229 0.13603109 0.31117022
-0.011681301 0.13598458 0.31106383
-0.01105792 0.1361241 0.31138298
-0.010436796 0.13631013 0.3118085
-0.0098172808 0.13654266 0.31234044
-0.0091893394 0.13668218 0.31265956
-0.0085630072 0.13686821 0.31308511
-0.0079295523 0.13696122 0.31329787
-0.0072927545 0.13700773 0.31340426
-0.0066532632 0.13700773 0.31340426
-0.00600969 0.13691472 0.3131915
-0.0053542145 0.13649616 0.31223404
-0.0046930038 0.13579856 0.31063831
-0.0040369146 0.13505447 0.30893618
-0.003391291 0.13444988 0.3075532
-0.0027570471 0.13412432 0.3068085
-0.002128059 0.13393831 0.30638298
-0.0015034166 0.1339848 0.30648935
-0.00087894959 0.13412432 0.3068085
-0.0002533556 0.13435686 0.30734041
0.00037518534 0.13486843 0.30851063
0.0010112735 0.13575205 0.31053191
0.0016595548 0.13696122 0.31329787
0.0023199045 0.1382169 0.31617022
0.0029849922 0.13914701 0.31829786
0.0081999414 0.13947257 0.31904256
0.0088391313 0.13928653 0.31861702
0.0094797537 0.13914701 0.31829786
0.010125845 0.13910052 0.3181915
0.010764296 0.138961 0.31787235
0.011401446 0.13882147 0.31755319
0.012037292 0.13868195 0.31723404
0.012684598 0.13868195 0.31723404
0.013345315 0.13882147 0.31755319
0.014016711 0.139054 0.3180851
0.014680468 0.13919352 0.31840426
0.015335284 0.13924004 0.31851065
0.015990533 0.13928653 0.31861702
0.016657328 0.13942605 0.31893617
0.017869031 0.13872847 0.31734043
0.014314027 0.094082355 0.21521276
0.014760453 0.094128862 0.21531914
0.015199805 0.094128862 0.21531914
0.01563143 0.094082355 0.21521276
0.016062621 0.094035856 0.21510638
0.016493376 0.09398935 0.215
0.016915321 0.093896329 0.21478723
0.017344993 0.09384983 0.21468085
0.017765418 0.093756817 0.21446809
0.018184973 0.093663804 0.21425532
0.12610087 0.13812388 0.31595746
0.1270016 0.13840291 0.31659573
0.12794787 0.13872847 0.31734043
0.12894025 0.13910052 0.3181915
-0.17737387 0.12260228 0.27914894
-0.17680427 0.12260228 0.27914894
-0.17630185 0.122649 0.27925533
-0.17593285 0.12278916 0.27957445
-0.17556259 0.12292933 0.27989361
-0.17519102 0.1230695 0.28021276
-0.17475183 0.12316295 0.28042552
-0.1743118 0.12325641 0.28063831
-0.17380501 0.12330312 0.28074467
-0.17329781 0.12334985 0.28085107
-0.17272475 0.12334985 0.28085107
-0.17189084 0.12316295 0.28042552
-0.17105867 0.12297606 0.28
-0.17042257 0.12292933 0.27989361
-0.16998059 0.12302279 0.2801064
-0.16966638 0.12320968 0.28053191
-0.16947871 0.12349002 0.28117022
-0.16922453 0.12372364 0.28170213
-0.16890447 0.12391052 0.28212765
-0.16845576 0.12400398 0.28234044
-0.16781639 0.12395725 0.28223404
-0.16717745 0.12391052 0.28212765
-0.16660179 0.12391052 0.28212765
-0.16608873 0.12395725 0.28223404
-0.16563761 0.1240507 0.2824468
-0.16512346 0.12409742 0.2825532
-0.16460887 0.12414414 0.28265956
-0.16409385 0.12419087 0.28276595
-0.16370143 0.12433104 0.28308511
-0.16330771 0.12447121 0.28340426
-0.16303486 0.12470483 0.28393617
-0.16282071 0.12498517 0.28457448
-0.16260393 0.12526551 0.28521276
-0.16226371 0.1254524 0.2856383
-0.16174108 0.12549911 0.28574467
-0.16109803 0.1254524 0.2856383
-0.16045541 0.12540567 0.28553191
-0.15981324 0.12535895 0.28542554
-0.15917148 0.12531224 0.28531915
-0.15841191 0.12517206 0.285
-0.15735906 0.12479828 0.28414893
-0.1560162 0.12419087 0.28276595
-0.15450355 0.12344329 0.28106382
-0.15293959 0.122649 0.27925533
-0.15149909 0.12194815 0.27765957
-0.15029642 0.12143418 0.27648935
-0.14938658 0.12115385 0.27585107
-0.14888111 0.12120057 0.27595744
-0.14888981 0.12166781 0.27702129
-0.14929287 0.1224621 0.27882978
-0.1498588 0.12339658 0.28095746
-0.15041605 0.12433104 0.28308511
-0.15085198 0.12517206 0.285
-0.15105574 0.12582619 0.28648937
-0.15114166 0.12638687 0.28776595
-0.15099974 0.12676066 0.28861701
-0.15074347 0.127041 0.28925532
-0.15026371 0.12713444 0.28946808
-0.14983808 0.12727462 0.28978723
-0.14946595 0.12746152 0.29021278
-0.14914663 0.12769513 0.29074469
-0.14877079 0.12788202 0.29117021
-0.14828494 0.12797546 0.29138297
-0.14774431 0.12802219 0.29148936
-0.14720325 0.12806892 0.29159576
-0.14655477 0.12802219 0.29148936
-0.14595999 0.12802219 0.29148936
-0.14536521 0.12802219 0.29148936
-0.14492895 0.12816237 0.29180852
-0.14454399 0.12834924 0.29223403
-0.14410491 0.12848942 0.29255319
-0.14361233 0.12858286 0.29276595
-0.14306693 0.1286296 0.29287234
-0.14252108 0.12867633 0.29297873
-0.14212939 0.12886322 0.29340425
-0.14183861 0.12914355 0.29404256
-0.14149413 0.12937717 0.29457447
-0.1410457 0.12951735 0.29489362
-0.14059599 0.12965752 0.29521278
-0.14004405 0.12970424 0.29531914
-0.13949171 0.12975095 0.29542553
-0.13898891 0.1298444 0.29563829
-0.13848527 0.12993784 0.29585105
-0.13807993 0.13012475 0.2962766
-0.13767283 0.13031164 0.29670212
-0.137264 0.13049853 0.29712766
-0.13685343 0.13068542 0.29755318
-0.13634372 0.13077888 0.29776597
-0.1358816 0.13091904 0.29808509
-0.13546649 0.13110594 0.29851064
-0.13504963 0.13129282 0.29893616
-0.13453536 0.13138628 0.29914895
-0.13392495 0.13138628 0.29914895
-0.13326713 0.13133955 0.29904255
-0.13265695 0.13133955 0.29904255
-0.13214071 0.131433 0.29925531
-0.13167036 0.13157317 0.29957446
-0.13124526 0.13176008 0.30000001
-0.13081841 0.13194695 0.30042553
-0.13038984 0.13213386 0.30085108
-0.12977596 0.13213386 0.30085108
-0.12902506 0.13199368 0.30053192
-0.12823001 0.13180679 0.30010638
-0.12752718 0.13171335 0.29989362
-0.12700529 0.13180679 0.30010638
-0.12661695 0.1320404 0.30063829
-0.12613729 0.13218057 0.30095744
-0.12556756 0.1322273 0.30106384
-0.1249091 0.13218057 0.30095744
-0.12433894 0.1322273 0.30106384
-0.12394322 0.13246092 0.30159575
-0.12363233 0.13278797 0.30234042
-0.12327513 0.13306832 0.30297872
-0.12282918 0.13325521 0.30340424
-0.1222958 0.13334867 0.30361703
-0.12167628 0.13334867 0.30361703
-0.12109917 0.13339539 0.30372339
-0.12056384 0.13348883 0.30393618
-0.12006961 0.13362899 0.30425531
-0.11940703 0.13358228 0.30414894
-0.11862022 0.13339539 0.30372339
-0.11762851 0.13297488 0.30276597
-0.11655847 0.13246092 0.30159575
-0.1154932 0.13194695 0.30042553
-0.11451408 0.13152644 0.29946807
-0.11361978 0.13119939 0.2987234
-0.11284927 0.1310125 0.29829788
-0.11220057 0.13096577 0.29819149
-0.1115125 0.13087232 0.29797873
-0.1107461 0.13068542 0.29755318
-0.10990269 0.1304051 0.29691491
-0.10906188 0.13012475 0.2962766
-0.10826262 0.12989113 0.29574469
-0.10762043 0.1298444 0.29563829
-0.10705571 0.12989113 0.29574469
-0.10645226 0.12989113 0.29574469
-0.10577264 0.12979768 0.29553193
-0.10501818 0.12961079 0.29510638
-0.10422783 0.12937717 0.29457447
-0.10347706 0.12919027 0.29414892
-0.10280245 0.12909682 0.29393616
-0.1021287 0.12900339 0.2937234
-0.10145583 0.12890995 0.29351065
-0.10078382 0.1288165 0.29329789
-0.10007634 0.12867633 0.29297873
-0.099297918 0.1284427 0.29244682
-0.098521657 0.12820908 0.29191488
-0.097711898 0.12792875 0.2912766
-0.096940212 0.12769513 0.29074469
-0.096205935 0.12750824 0.29031914
-0.095543481 0.12741479 0.29010639
-0.094951525 0.12741479 0.29010639
-0.094255768 0.12727462 0.28978723
-0.09352693 0.12708773 0.28936172
-0.092765652 0.12685411 0.28882977
-0.092040509 0.12666722 0.28840426
-0.09138456 0.12657377 0.2881915
-0.090729475 0.12648031 0.28797871
-0.090008669 0.12629342 0.28755319
-0.089289606 0.12610653 0.28712767
-0.088572264 0.12591964 0.28670213
-0.087856665 0.12573275 0.28627661
-0.08720766 0.12563929 0.28606382
-0.08659175 0.12559257 0.28595746
-0.085976258 0.12554584 0.28585106
-0.085297652 0.12540567 0.28553191
-0.084620342 0.12526551 0.28521276
-0.083975688 0.12517206 0.285
-0.083363019 0.12512533 0.2848936
-0.082750797 0.12507862 0.28478724
-0.082046919 0.12489171 0.28436169
-0.081314296 0.1246581 0.28382978
-0.080583848 0.12442449 0.28329787
-0.079885624 0.1242376 0.28287235
-0.079218946 0.12409742 0.2825532
-0.07855358 0.12395725 0.28223404
-0.077889509 0.12381708 0.28191489
-0.077255927 0.12372364 0.28170213
-0.076623209 0.1236302 0.28148937
-0.075991347 0.12353674 0.28127658
-0.075303324 0.12334985 0.28085107
-0.074617021 0.12316295 0.28042552
-0.073932469 0.12297606 0.28
-0.073305398 0.12288262 0.27978724
-0.072679184 0.12278916 0.27957445
-0.072053842 0.12269571 0.2793617
-0.07137493 0.12250883 0.27893618
-0.070724756 0.12236866 0.27861702
-0.070102677 0.12227521 0.27840427
-0.069508031 0.12222849 0.27829787
-0.06896653 0.12227521 0.27840427
-0.068424582 0.12232193 0.27851063
-0.067778535 0.12218176 0.27819148
-0.067082383 0.12194815 0.27765957
-0.066311948 0.12157436 0.2768085
-0.065620795 0.12134074 0.27627659
-0.064981908 0.12120057 0.27595744
-0.064443663 0.12124729 0.27606383
-0.063904978 0.12129402 0.27617022
-0.063341461 0.12129402 0.27617022
-0.062729575 0.12120057 0.27595744
-0.062094606 0.12106041 0.27563831
-0.061389681 0.12078007 0.27500001
-0.060687363 0.12049972 0.2743617
-0.059987649 0.12021937 0.27372339
-0.059336741 0.12003249 0.27329788
-0.05868756 0.11984558 0.27287233
-0.058040127 0.1196587 0.27244681
-0.057394419 0.1194718 0.27202126
-0.056750458 0.11928491 0.27159575
-0.056130238 0.11914474 0.27127659
-0.055554911 0.11909801 0.2711702
-0.054980021 0.11905129 0.27106383
-0.054426927 0.11905129 0.27106383
-0.05387383 0.11905129 0.27106383
-0.053299803 0.11900457 0.27095744
-0.052705508 0.11891112 0.27074468
-0.052071095 0.11872423 0.27031916
-0.051438414 0.11853734 0.26989362
-0.050827529 0.11839716 0.26957446
-0.05023779 0.11830372 0.2693617
-0.049629293 0.11816355 0.26904255
-0.049022101 0.11802337 0.2687234
-0.048435401 0.11792993 0.26851064
-0.047849569 0.11783649 0.26829788
-0.047264602 0.11774303 0.26808509
-0.046699047 0.11769632 0.26797873
-0.046115603 0.11760287 0.26776597
-0.045514919 0.1174627 0.26744682
-0.044879768 0.11722908 0.2669149
-0.044246785 0.11699547 0.26638299
-0.043633424 0.11680857 0.26595744
-0.043073509 0.11676184 0.26585105
-0.042531047 0.11676184 0.26585105
-0.041988589 0.11676184 0.26585105
-0.041412957 0.1166684 0.26563829
-0.040838197 0.11657495 0.26542553
-0.040264305 0.11648151 0.26521277
-0.03970721 0.11643478 0.26510638
-0.039150551 0.11638805 0.26499999
-0.038578831 0.11629461 0.26478723
-0.038007975 0.11620116 0.26457447
-0.037422922 0.11606099 0.26425532
-0.036839172 0.11592082 0.26393616
-0.036285993 0.1158741 0.2638298
-0.035762068 0.11592082 0.26393616
-0.035223514 0.11592082 0.26393616
-0.034657001 0.11582737 0.2637234
-0.034063831 0.11564049 0.26329789
-0.033431757 0.11531342 0.26255319
-0.032816049 0.11503308 0.26191488
-0.032242291 0.11489291 0.26159576
-0.031682719 0.11479945 0.26138297
-0.031124022 0.11470601 0.26117021
-0.030578654 0.11465929 0.26106384
-0.030021472 0.11456584 0.26085106
-0.029465161 0.1144724 0.2606383
-0.028921528 0.11442567 0.2605319
-0.028355146 0.11428551 0.26021278
-0.027778687 0.11409861 0.25978723
-0.027203968 0.11391172 0.25936171
-0.026641926 0.11377155 0.25904256
-0.026102632 0.11372482 0.25893617
-0.025553267 0.11363138 0.25872341
-0.02498419 0.11344448 0.25829786
-0.024416851 0.11325759 0.25787234
-0.023861103 0.11311742 0.25755319
-0.023316298 0.11302397 0.25734043
-0.02278178 0.11297724 0.25723404
-0.0222477 0.11293053 0.25712767
-0.021705063 0.11283708 0.25691488
-0.021172067 0.11279036 0.25680852
-0.02063095 0.1126969 0.25659573
-0.020090703 0.11260346 0.25638297
-0.019543203 0.11246329 0.25606382
-0.018989105 0.1122764 0.2556383
-0.018452113 0.11218295 0.25542554
-0.017915988 0.1120895 0.25521275
-0.017387986 0.11204278 0.25510639
-0.01686745 0.11204278 0.25510639
-0.016340097 0.11199605 0.255
-0.015806578 0.11190261 0.25478724
-0.015267545 0.11176243 0.25446808
-0.014723649 0.11157555 0.25404257
-0.014181489 0.11138865 0.25361702
-0.013646797 0.11124848 0.25329787
-0.013124438 0.11120176 0.2531915
-0.012613106 0.11124848 0.25329787
-0.01209626 0.11124848 0.25329787
-0.011579414 0.11124848 0.25329787
-0.011617381 0.13587172 0.3093617
-0.010997473 0.1360119 0.30968085
-0.010390505 0.13633895 0.31042552
-0.0097804992 0.13666603 0.31117022
-0.009158073 0.13685292 0.31159574
-0.0085251825 0.13689965 0.31170213
-0.0078864712 0.13685292 0.31159574
-0.0072481958 0.1368062 0.31148937
-0.0066103535 0.13675947 0.31138298
-0.0059729456 0.13671274 0.31127658
-0.0053268508 0.13643241 0.31063831
-0.0046769315 0.13596517 0.30957446
-0.0040285736 0.1354045 0.30829787
-0.0033889448 0.13498397 0.30734041
-0.0027570471 0.13475037 0.3068085
-0.0021287978 0.13461019 0.30648935
-0.0015034166 0.13461019 0.30648935
-0.00087894959 0.13475037 0.3068085
-0.00025353101 0.13507743 0.3075532
0.00037570286 0.13568483 0.30893618
0.0010126593 0.13657258 0.31095746
0.0016606818 0.13769394 0.31351063
0.0023191238 0.1388153 0.31606382
0.0029819994 0.13965632 0.31797871
0.0088420836 0.13998339 0.31872341
0.0094797537 0.1397965 0.31829786
0.010119073 0.13965632 0.31797871
0.010749886 0.1394227 0.3174468
0.011378528 0.13918909 0.31691489
0.012004999 0.13895547 0.31638297
0.01264206 0.13886203 0.31617022
0.013287195 0.13886203 0.31617022
0.013946394 0.1390022 0.31648937
0.01460199 0.13909565 0.31670213
0.015248209 0.13909565 0.31670213
0.015899768 0.13914238 0.31680852
0.01656843 0.13932925 0.31723404
0.017279241 0.13984323 0.31840426
0.01430695 0.09447477 0.21510638
0.014753161 0.094521493 0.21521276
0.015192295 0.094521493 0.21521276
0.015623703 0.09447477 0.21510638
0.016054677 0.094428048 0.215
0.016493376 0.094428048 0.215
0.016915321 0.094334595 0.21478723
0.017344993 0.09428788 0.21468085
0.017756604 0.094147705 0.2143617
0.018184973 0.094100982 0.21425532
0.12002263 0.13554466 0.30861703
0.12094348 0.13587172 0.3093617
0.12211821 0.13647912 0.31074467
0.12334061 0.13713326 0.31223404
0.12469581 0.13792755 0.31404254
0.1257612 0.1383948 0.31510639
0.12674557 0.13876858 0.31595746
0.12773341 0.13914238 0.31680852
0.12881093 0.13960961 0.31787235
0.12993613 0.14012356 0.31904256
-0.17649512 0.12256164 0.27776596
-0.17592834 0.12256164 0.27776596
-0.17536157 0.12256164 0.27776596
-0.17499563 0.12270246 0.27808511
-0.17462841 0.12284329 0.27840427
-0.17432636 0.12303104 0.27882978
-0.1739563 0.12317187 0.27914894
-0.17351887 0.12326574 0.2793617
-0.17314641 0.12340657 0.27968085
-0.17264138 0.12345351 0.27978724
-0.1721359 0.12350044 0.27989361
-0.17136917 0.12335962 0.27957445
-0.17053874 0.12317187 0.27914894
-0.16977482 0.12303104 0.27882978
-0.16927044 0.12307799 0.27893618
-0.16889431 0.12321881 0.27925533
-0.16864511 0.12345351 0.27978724
-0.16839375 0.12368821 0.28031915
-0.16807652 0.12387597 0.28074467
-0.16756715 0.12392291 0.28085107
-0.16693081 0.12387597 0.28074467
-0.16629493 0.12382904 0.28063831
-0.16578512 0.12387597 0.28074467
-0.16533749 0.12396986 0.28095746
-0.16488896 0.12406374 0.28117022
-0.16437741 0.12411067 0.28127658
-0.16386543 0.12415762 0.28138298
-0.16341475 0.12425149 0.28159574
-0.16296321 0.12434538 0.28180853
-0.16257209 0.1244862 0.28212765
-0.16217966 0.12462702 0.2824468
-0.16190767 0.12486172 0.28297871
-0.16169418 0.12514336 0.28361702
-0.16135721 0.12533113 0.28404257
-0.16089806 0.12542501 0.28425533
-0.16031805 0.12542501 0.28425533
-0.15973803 0.12542501 0.28425533
-0.15909845 0.12537807 0.28414893
-0.15845931 0.12533113 0.28404257
-0.1576432 0.12514336 0.28361702
-0.15665209 0.12481479 0.28287235
-0.15531185 0.12420456 0.28148937
-0.15374331 0.12340657 0.27968085
-0.15206563 0.12251469 0.27765957
-0.15045427 0.12166977 0.27574468
-0.14919768 0.12110649 0.27446809
-0.14834958 0.12087179 0.27393618
-0.14796279 0.1210126 0.27425531
-0.14808932 0.12157589 0.27553192
-0.14849544 0.12237387 0.27734041
-0.14900765 0.12326574 0.2793617
-0.14951162 0.12415762 0.28138298
-0.14995103 0.12500255 0.28329787
-0.15021434 0.12570664 0.2848936
-0.15035942 0.12631689 0.28627661
-0.15027618 0.12673934 0.28723404
-0.15002275 0.12702098 0.28787234
-0.14960103 0.12716182 0.2881915
-0.149123 0.12725569 0.28840426
-0.14875366 0.12744345 0.28882977
-0.14838262 0.12763122 0.28925532
-0.14795546 0.12777203 0.28957447
-0.14741872 0.12781897 0.28968084
-0.14688157 0.12786591 0.28978723
-0.14634398 0.12791286 0.28989363
-0.14580594 0.12795979 0.28999999
-0.1452142 0.12795979 0.28999999
-0.14472859 0.12805368 0.29021278
-0.14429492 0.1281945 0.2905319
-0.14391257 0.12838227 0.29095745
-0.1434761 0.12852308 0.2912766
-0.14293393 0.12857002 0.29138297
-0.14228742 0.12852308 0.2912766
-0.14174481 0.12857002 0.29138297
-0.14135639 0.12875779 0.29180852
-0.14106888 0.12903944 0.29244682
-0.14072764 0.12927413 0.29297873
-0.14033335 0.1294619 0.29340425
-0.13988666 0.12960272 0.2937234
-0.13938823 0.12969659 0.29393616
-0.13888893 0.12979047 0.29414892
-0.13843876 0.1299313 0.29446808
-0.1379873 0.13007212 0.29478723
-0.13753454 0.13021295 0.29510638
-0.13708048 0.13035376 0.29542553
-0.13662511 0.13049459 0.29574469
-0.1361195 0.13058847 0.29595745
-0.13571046 0.13077624 0.29638299
-0.13529968 0.130964 0.29680851
-0.13488716 0.13115175 0.29723403
-0.13437679 0.13124564 0.29744682
-0.13376985 0.13124564 0.29744682
-0.13306767 0.13115175 0.29723403
-0.13231896 0.13101093 0.29691491
-0.13171311 0.13101093 0.29691491
-0.13124818 0.13115175 0.29723403
-0.13078196 0.13129257 0.29755318
-0.13040751 0.13152727 0.29808509
-0.12998459 0.13171504 0.29851064
-0.1295599 0.1319028 0.29893616
-0.12894994 0.1319028 0.29893616
-0.12820296 0.13176198 0.29861704
-0.12745728 0.13162117 0.29829788
-0.12684861 0.13162117 0.29829788
-0.12642002 0.13180892 0.2987234
-0.1260345 0.13204361 0.29925531
-0.12555765 0.13218445 0.29957446
-0.124902 0.13213749 0.29946807
-0.12420264 0.13204361 0.29925531
-0.12363596 0.13209057 0.29936171
-0.12324372 0.13232526 0.29989362
-0.1229363 0.13265385 0.30063829
-0.12258258 0.13293549 0.30127659
-0.12214011 0.13312326 0.30170214
-0.12152449 0.13312326 0.30170214
-0.12090888 0.13312326 0.30170214
-0.12033568 0.13317019 0.30180851
-0.11980424 0.13326406 0.30202127
-0.11927195 0.13335796 0.30223405
-0.11865525 0.13335796 0.30223405
-0.11791391 0.13321714 0.3019149
-0.11700854 0.13288854 0.3011702
-0.11602399 0.13246609 0.30021277
-0.11496154 0.13194974 0.29904255
-0.11398523 0.13152727 0.29808509
-0.11309376 0.13119869 0.29734042
-0.11236631 0.13105787 0.29702127
-0.11172023 0.13101093 0.29691491
-0.11103475 0.13091704 0.29670212
-0.11027097 0.13072929 0.2962766
-0.10943016 0.13044764 0.29563829
-0.10859195 0.13016599 0.29499999
-0.1077953 0.1299313 0.29446808
-0.10715573 0.12988436 0.29436171
-0.10655509 0.12988436 0.29436171
-0.10599274 0.1299313 0.29446808
-0.10535382 0.12988436 0.29436171
-0.10460175 0.12969659 0.29393616
-0.10381377 0.1294619 0.29340425
-0.10302798 0.12922719 0.29287234
-0.10228156 0.12903944 0.29244682
-0.10161084 0.12894554 0.29223403
-0.10097779 0.12889861 0.29212767
-0.10034515 0.12885167 0.29202127
-0.099676609 0.12875779 0.29180852
-0.098900579 0.12852308 0.2912766
-0.098090813 0.12824143 0.2906383
-0.097283646 0.12795979 0.28999999
-0.09651456 0.12772509 0.28946808
-0.095818147 0.12758426 0.28914893
-0.095158085 0.12749039 0.28893617
-0.094568513 0.12749039 0.28893617
-0.093840547 0.12730263 0.28851065
-0.09304554 0.12702098 0.28787234
-0.092253134 0.12673934 0.28723404
-0.091531247 0.12655158 0.28680852
-0.09091229 0.12650464 0.28670213
-0.090327278 0.12650464 0.28670213
-0.08967568 0.12641077 0.28648937
-0.08895877 0.126223 0.28606382
-0.088210739 0.12598829 0.28553191
-0.087530173 0.12584747 0.28521276
-0.086948209 0.12584747 0.28521276
-0.08639846 0.12589441 0.28531915
-0.085784279 0.12584747 0.28521276
-0.085075192 0.12565972 0.28478724
-0.084336281 0.12542501 0.28425533
-0.083693579 0.12533113 0.28404257
-0.083082862 0.12528419 0.28393617
-0.08244168 0.12519032 0.28372341
-0.08173997 0.12500255 0.28329787
-0.080948569 0.12467396 0.2825532
-0.080190465 0.12439232 0.28191489
-0.079525091 0.12425149 0.28159574
-0.07889086 0.12415762 0.28138298
-0.078257486 0.12406374 0.28117022
-0.077654377 0.12401679 0.28106382
-0.077080876 0.12401679 0.28106382
-0.076478422 0.12396986 0.28095746
-0.075847648 0.12387597 0.28074467
-0.075160705 0.12368821 0.28031915
-0.07441888 0.12340657 0.27968085
-0.073735841 0.12321881 0.27925533
-0.07308241 0.12307799 0.27893618
-0.072457939 0.12298411 0.27872342
-0.0718069 0.12284329 0.27840427
-0.071129933 0.12265552 0.27797872
-0.070454717 0.12246776 0.2775532
-0.069808014 0.12232694 0.27723405
-0.069215752 0.12227999 0.27712765
-0.068676643 0.12232694 0.27723405
-0.068058684 0.12223306 0.27702129
-0.06741567 0.12209224 0.27670214
-0.066722557 0.12185754 0.27617022
-0.06603162 0.12162284 0.27563831
-0.065368116 0.12143507 0.27521276
-0.064781494 0.12138812 0.27510637
-0.064220153 0.12138812 0.27510637
-0.063658804 0.12138812 0.27510637
-0.063073069 0.12134119 0.27500001
-0.062463574 0.12124731 0.27478725
-0.061807014 0.12105954 0.2743617
-0.061104696 0.1207779 0.27372339
-0.06040499 0.12049627 0.27308512
-0.05970788 0.12021462 0.27244681
-0.059059571 0.12002685 0.27202126
-0.058413003 0.11983909 0.27159575
-0.057790831 0.11969827 0.27127659
-0.057169963 0.11955745 0.27095744
-0.056572624 0.11946357 0.27074468
-0.055976156 0.11936969 0.27053192
-0.05540235 0.11932275 0.27042553
-0.054850556 0.11932275 0.27042553
-0.054277405 0.11927582 0.27031916
-0.053704679 0.11922887 0.27021277
-0.053132392 0.11918192 0.27010638
-0.052539833 0.11908805 0.26989362
-0.051927645 0.11894722 0.26957446
-0.05131676 0.1188064 0.26925531
-0.050707176 0.11866558 0.26893616
-0.050079063 0.11847782 0.26851064
-0.049472302 0.118337 0.26819149
-0.048866842 0.11819617 0.26787233
-0.048262689 0.11805535 0.26755318
-0.04767881 0.11796147 0.26734042
-0.047095802 0.1178676 0.26712766
-0.046513658 0.11777371 0.2669149
-0.045950707 0.11772677 0.26680851
-0.045370083 0.11763289 0.26659575
-0.04475455 0.11744513 0.2661702
-0.044105422 0.11716349 0.26553193
-0.043493796 0.11697572 0.26510638
-0.042918384 0.11688184 0.26489362
-0.042377878 0.11688184 0.26489362
-0.041837372 0.11688184 0.26489362
-0.041247107 0.11674102 0.26457447
-0.040658146 0.11660019 0.26425532
-0.040086642 0.11650632 0.26404256
-0.039516006 0.11641244 0.2638298
-0.038961951 0.11636549 0.2637234
-0.038408332 0.11631855 0.26361701
-0.037824586 0.11617774 0.26329789
-0.037242137 0.11603691 0.26297873
-0.036646143 0.11584914 0.26255319
-0.03608115 0.11575527 0.26234043
-0.035545852 0.11575527 0.26234043
-0.035024755 0.11580221 0.26244682
-0.03448924 0.11580221 0.26244682
-0.033912435 0.11566139 0.26212767
-0.033309843 0.11542669 0.26159576
-0.032696091 0.11514504 0.26095745
-0.032098059 0.11491034 0.26042554
-0.031527981 0.11476952 0.26010638
-0.030971888 0.11467564 0.25989363
-0.03041666 0.11458175 0.25968084
-0.029850062 0.11444094 0.25936171
-0.029296787 0.11434705 0.25914893
-0.028744385 0.11425317 0.25893617
-0.028181257 0.11411235 0.25861701
-0.027630808 0.11401847 0.25840425
-0.027070066 0.11387765 0.2580851
-0.026532514 0.11383072 0.25797874
-0.02599539 0.11378377 0.25787234
-0.025458703 0.11373682 0.25776595
-0.02491216 0.11364295 0.25755319
-0.024356414 0.11350212 0.25723404
-0.023801968 0.1133613 0.25691488
-0.023258464 0.11326742 0.25670213
-0.022715829 0.11317354 0.25648937
-0.022164857 0.11303272 0.25617021
-0.021624176 0.11293884 0.25595745
-0.021084363 0.11284497 0.2557447
-0.020545416 0.11275107 0.25553191
-0.019999001 0.11261025 0.25521275
-0.019453892 0.11246944 0.25489363
-0.018902181 0.11228167 0.25446808
-0.018367577 0.1121878 0.25425532
-0.017841309 0.11214085 0.25414893
-0.017315477 0.11209392 0.25404257
-0.01679711 0.11209392 0.25404257
-0.016278746 0.11209392 0.25404257
-0.01575378 0.11204697 0.25393617
-0.015222866 0.11195309 0.25372341
-0.014680489 0.11176533 0.25329787
-0.014139849 0.11157757 0.25287235
-0.013600945 0.1113898 0.2524468
-0.013080322 0.11134287 0.25234044
-0.012570726 0.1113898 0.2524468
-0.012060698 0.11143675 0.25255319
-0.011550236 0.11148369 0.25265959
-0.011030045 0.11143675 0.25255319
-0.011581427 0.1360805 0.30840427
-0.01096725 0.13626827 0.30882978
-0.010358458 0.1365499 0.30946809
-0.0097537488 0.13692544 0.31031916
-0.009136186 0.13716014 0.31085107
-0.0085048154 0.13720709 0.31095746
-0.0078622391 0.13706626 0.31063831
-0.0072209653 0.13692544 0.31031916
-0.0065809945 0.13678461 0.31
-0.005944367 0.13669074 0.30978724
-0.0053049591 0.13650297 0.3093617
-0.0046624672 0.13617438 0.30861703
-0.0040216232 0.13579886 0.30776596
-0.0033865988 0.13551721 0.30712765
-0.0027570471 0.13537639 0.3068085
-0.0021295368 0.13528252 0.30659574
-0.0015039385 0.13528252 0.30659574
-0.00087925442 0.13542333 0.3069149
-0.0002537941 0.13584581 0.30787235
0.00037622036 0.13650297 0.3093617
0.001014045 0.13739485 0.31138298
0.0016623724 0.13847446 0.31382978
0.0023191238 0.13946022 0.31606382
0.0029800041 0.14021127 0.31776595
0.003640542 0.14068067 0.31882977
0.0094955955 0.14068067 0.31882977
0.01012923 0.14044596 0.31829786
0.010757091 0.14016433 0.31765959
0.011374708 0.13978881 0.31680852
0.011992889 0.13946022 0.31606382
0.012612285 0.13917859 0.31542554
0.013242488 0.13903776 0.31510639
0.013885451 0.13903776 0.31510639
0.014528415 0.13903776 0.31510639
0.015166258 0.13899082 0.315
0.015809003 0.13899082 0.315
0.016479531 0.13922551 0.31553191
0.017181097 0.13969491 0.31659573
0.01430695 0.094913691 0.21510638
0.014753161 0.09496063 0.21521276
0.015192295 0.09496063 0.21521276
0.015623703 0.094913691 0.21510638
0.016054677 0.094866753 0.215
0.016493376 0.094866753 0.215
0.0169237 0.094819807 0.21489362
0.017344993 0.094725929 0.21468085
0.017765418 0.094632044 0.21446809
0.018184973 0.09453816 0.21425532
0.11829634 0.13636215 0.30904254
0.11884506 0.13626827 0.30882978
0.11935174 0.13612744 0.30851063
0.12002263 0.13617438 0.30861703
0.12094348 0.13650297 0.3093617
0.1220346 0.13701932 0.31053191
0.12325657 0.13767649 0.31202129
0.12440012 0.13823977 0.31329787
0.12546398 0.13870917 0.31436169
0.12648951 0.13913164 0.31531915
0.12760472 0.13964799 0.31648937
0.12876782 0.14021127 0.31776595
0.12997945 0.14082149 0.31914893
-0.17541356 0.12237389 0.27606383
-0.17485027 0.12237389 0.27606383
-0.17435414 0.12242106 0.27617022
-0.17399144 0.12256251 0.27648935
-0.17376094 0.12279832 0.27702129
-0.17346172 0.12298694 0.27744681
-0.17316078 0.12317558 0.27787235
-0.172792 0.12331704 0.27819148
-0.17242195 0.12345851 0.27851063
-0.1720506 0.12359998 0.27882978
-0.17148165 0.12359998 0.27882978
-0.17071708 0.12345851 0.27851063
-0.16982383 0.12322272 0.27797872
-0.16906229 0.12308125 0.27765957
-0.16849574 0.12308125 0.27765957
-0.16805787 0.12317558 0.27787235
-0.1678115 0.12341136 0.27840427
-0.16749905 0.12359998 0.27882978
-0.16712117 0.12374146 0.27914894
-0.16655158 0.12374146 0.27914894
-0.16591872 0.1236943 0.27904254
-0.16534935 0.1236943 0.27904254
-0.1648428 0.12374146 0.27914894
-0.16446102 0.12388293 0.27946809
-0.16407794 0.12402441 0.27978724
-0.1635692 0.12407156 0.27989361
-0.16306005 0.12411872 0.28
-0.16261218 0.12421303 0.28021276
-0.16222498 0.12435451 0.28053191
-0.16183648 0.12449598 0.28085107
-0.16138557 0.12459029 0.28106382
-0.16105555 0.12477893 0.28148937
-0.16072378 0.12496756 0.28191489
-0.1604507 0.12520334 0.2824468
-0.16005503 0.12534481 0.28276595
-0.15953806 0.12539198 0.28287235
-0.15902063 0.12543914 0.28297871
-0.15844323 0.12543914 0.28297871
-0.15774713 0.12534481 0.28276595
-0.15687449 0.12510903 0.28223404
-0.1558273 0.12473177 0.28138298
-0.15449008 0.12411872 0.28
-0.1529246 0.12331704 0.27819148
-0.15113343 0.12232673 0.27595744
-0.1494675 0.12143075 0.27393618
-0.14809895 0.12077054 0.27244681
-0.14731257 0.1205819 0.27202126
-0.14704449 0.1208177 0.27255321
-0.14717449 0.12138359 0.27382979
-0.14758408 0.12218527 0.27563831
-0.14809975 0.12308125 0.27765957
-0.14860719 0.12397725 0.27968085
-0.14905009 0.12482608 0.28159574
-0.14937297 0.12558061 0.28329787
-0.14957716 0.12624082 0.28478724
-0.1496083 0.12675954 0.28595746
-0.14935745 0.12704249 0.28659573
-0.14893833 0.12718396 0.28691489
-0.14846292 0.12727828 0.28712767
-0.1480414 0.12741974 0.2874468
-0.14761859 0.12756123 0.28776595
-0.14719449 0.1277027 0.2880851
-0.1466608 0.12774986 0.2881915
-0.14612667 0.12779701 0.28829786
-0.14564583 0.12789133 0.28851065
-0.1451641 0.12798564 0.28872341
-0.14468151 0.12807995 0.28893617
-0.144145 0.12812711 0.28904256
-0.14371373 0.1282686 0.28936172
-0.14328115 0.12841006 0.28968084
-0.14284727 0.12855153 0.28999999
-0.14225553 0.12855153 0.28999999
-0.14161183 0.12850438 0.28989363
-0.14102031 0.12850438 0.28989363
-0.1405834 0.12864585 0.29021278
-0.14024781 0.12888165 0.29074469
-0.13991006 0.12911743 0.2912766
-0.13946836 0.1292589 0.29159576
-0.13902535 0.12940036 0.29191488
-0.13863151 0.12958901 0.29234043
-0.13823591 0.12977763 0.29276595
-0.13788863 0.13001342 0.29329789
-0.13743953 0.13015489 0.29361701
-0.13698916 0.13029636 0.29393616
-0.13648811 0.13039067 0.29414892
-0.13598621 0.130485 0.29436171
-0.13548343 0.13057931 0.29457447
-0.1350285 0.13072078 0.29489362
-0.13466926 0.13095658 0.29542553
-0.13425955 0.13114519 0.29585105
-0.133752 0.13123952 0.29606384
-0.1330522 0.13114519 0.29585105
-0.13225803 0.13095658 0.29542553
-0.13146558 0.13076793 0.29499999
-0.13081646 0.13072078 0.29489362
-0.13035567 0.13086227 0.29521278
-0.12994032 0.13105088 0.29563829
-0.12956978 0.13128667 0.2961702
-0.12919708 0.13152246 0.29670212
-0.12872998 0.13166393 0.29702127
-0.12812392 0.13166393 0.29702127
-0.12742652 0.13156962 0.29680851
-0.12672998 0.1314753 0.29659575
-0.12621526 0.13156962 0.29680851
-0.12583475 0.13180541 0.29734042
-0.12549685 0.13208835 0.29797873
-0.12497801 0.13218267 0.29819149
-0.12432519 0.13213551 0.29808509
-0.12358451 0.13199404 0.29776597
-0.12302085 0.13204119 0.29787233
-0.12263165 0.13227698 0.29840425
-0.12232728 0.13260709 0.29914895
-0.1219333 0.13284288 0.29968086
-0.12145102 0.13298436 0.30000001
-0.12079602 0.13293719 0.29989362
-0.1201841 0.13293719 0.29989362
-0.1196146 0.13298436 0.30000001
-0.11904465 0.1330315 0.30010638
-0.11847428 0.13307866 0.30021277
-0.11786171 0.13307866 0.30021277
-0.11716604 0.13298436 0.30000001
-0.11638857 0.13279571 0.29957446
-0.11544839 0.13241845 0.2987234
-0.11442988 0.13194688 0.29765958
-0.11345639 0.13152246 0.29670212
-0.11256775 0.13119236 0.29595745
-0.11184312 0.13105088 0.29563829
-0.11123988 0.13105088 0.29563829
-0.11055702 0.13095658 0.29542553
-0.10983542 0.1308151 0.29510638
-0.108997 0.13053215 0.29446808
-0.1081612 0.13024922 0.2938298
-0.10736693 0.13001342 0.29329789
-0.106691 0.1299191 0.2930851
-0.10609297 0.1299191 0.2930851
-0.10549495 0.1299191 0.2930851
-0.10485885 0.12987195 0.29297873
-0.10414746 0.12973048 0.29265958
-0.10336209 0.1294947 0.29212767
-0.10254147 0.12921174 0.29148936
-0.10172345 0.1289288 0.29085106
-0.101019 0.12878732 0.2905319
-0.10042618 0.12878732 0.2905319
-0.099833362 0.12878732 0.2905319
-0.099167868 0.128693 0.29031914
-0.098394878 0.12845722 0.28978723
-0.097588144 0.12817428 0.28914893
-0.096784033 0.12789133 0.28851065
-0.096053451 0.1277027 0.2880851
-0.095359862 0.12756123 0.28776595
-0.094737649 0.12751408 0.28765959
-0.094046235 0.12737259 0.28734043
-0.093356118 0.12723112 0.28702128
-0.092529774 0.12690103 0.28627661
-0.091740623 0.12661807 0.2856383
-0.091055937 0.1264766 0.28531915
-0.090473749 0.1264766 0.28531915
-0.089958593 0.12657091 0.28553191
-0.089342684 0.12652376 0.28542554
-0.088627949 0.12633513 0.285
-0.087914959 0.1261465 0.28457448
-0.087236345 0.12600502 0.28425533
-0.086721197 0.12609933 0.28446808
-0.086172961 0.1261465 0.28457448
-0.085560299 0.12609933 0.28446808
-0.084820949 0.12586355 0.28393617
-0.084052213 0.12558061 0.28329787
-0.083348773 0.12539198 0.28287235
-0.082740448 0.12534481 0.28276595
-0.082070738 0.12520334 0.2824468
-0.081340939 0.12496756 0.28191489
-0.080552362 0.12463746 0.28117022
-0.079827338 0.12440167 0.28063831
-0.079134531 0.12421303 0.28021276
-0.078532942 0.12416589 0.2801064
-0.077931784 0.12411872 0.28
-0.077389851 0.12416589 0.2801064
-0.076847471 0.12421303 0.28021276
-0.076275706 0.12421303 0.28021276
-0.075617716 0.12407156 0.27989361
-0.074903987 0.12383577 0.2793617
-0.07419242 0.12359998 0.27882978
-0.073483028 0.1233642 0.27829787
-0.072859429 0.12326989 0.27808511
-0.072236694 0.12317558 0.27787235
-0.071614824 0.12308125 0.27765957
-0.07091216 0.12284546 0.27712765
-0.070211671 0.12260968 0.27659574
-0.06956692 0.1224682 0.27627659
-0.068976626 0.12242106 0.27617022
-0.068386756 0.12237389 0.27606383
-0.067771181 0.12227958 0.27585107
-0.067130558 0.12213811 0.27553192
-0.066439837 0.12190232 0.27500001
-0.065802254 0.12176085 0.27468085
-0.065165967 0.12161937 0.2743617
-0.064606145 0.12161937 0.2743617
-0.064021483 0.12157221 0.27425531
-0.063437261 0.12152506 0.27414894
-0.06282907 0.12143075 0.27393618
-0.062173381 0.12124211 0.27351063
-0.061519433 0.12105349 0.27308512
-0.060819719 0.12077054 0.27244681
-0.060099084 0.12044044 0.27170214
-0.059428107 0.12020463 0.2711702
-0.058782406 0.12001602 0.27074468
-0.058161318 0.11987454 0.27042553
-0.057564203 0.11978023 0.27021277
-0.056967951 0.11968592 0.27000001
-0.056372561 0.11959159 0.26978722
-0.055800062 0.11954444 0.26968086
-0.055249788 0.11954444 0.26968086
-0.054699514 0.11954444 0.26968086
-0.054106519 0.11945013 0.2694681
-0.053514387 0.11935581 0.26925531
-0.052923128 0.1192615 0.26904255
-0.052332737 0.11916718 0.26882979
-0.05172272 0.11902571 0.26851064
-0.051134285 0.11893139 0.26829788
-0.050526656 0.11878992 0.26797873
-0.049920332 0.11864845 0.26765957
-0.049315307 0.11850697 0.26734042
-0.048730996 0.11841266 0.26712766
-0.048147552 0.11831835 0.2669149
-0.047546003 0.11817687 0.26659575
-0.046945754 0.1180354 0.2662766
-0.04636535 0.11794108 0.26606384
-0.045804132 0.11789392 0.26595744
-0.045243349 0.11784676 0.26585105
-0.044629339 0.11765814 0.26542553
-0.043999396 0.11742235 0.26489362
-0.043371625 0.11718656 0.26436171
-0.042797729 0.11709225 0.26414895
-0.042241722 0.11704509 0.26404256
-0.041702952 0.11704509 0.26404256
-0.041114427 0.11690361 0.2637234
-0.040527202 0.11676214 0.26340425
-0.039941281 0.11662067 0.2630851
-0.039372601 0.11652635 0.26287234
-0.038804784 0.11643204 0.26265958
-0.03823784 0.11633773 0.26244682
-0.037656475 0.11619625 0.26212767
-0.037061349 0.11600762 0.26170212
-0.036453113 0.11577183 0.26117021
-0.035876308 0.11563036 0.26085106
-0.03532964 0.1155832 0.26074469
-0.034811791 0.11563036 0.26085106
-0.034293517 0.11567752 0.26095745
-0.033747278 0.11563036 0.26085106
-0.033160836 0.11544173 0.26042554
-0.032562803 0.11520594 0.25989363
-0.03196694 0.11497016 0.25936171
-0.03137324 0.11473436 0.25882977
-0.030807078 0.11459289 0.25851065
-0.030254671 0.11449857 0.25829786
-0.029690895 0.11435711 0.25797874
-0.029128417 0.11421563 0.25765958
-0.028579051 0.11412131 0.2574468
-0.028030556 0.114027 0.25723404
-0.027482927 0.11393269 0.25702128
-0.026936168 0.11383837 0.25680852
-0.026412159 0.11383837 0.25680852
-0.025888151 0.11383837 0.25680852
-0.025353633 0.11379121 0.25670213
-0.024819549 0.11374405 0.25659573
-0.02427583 0.11364974 0.25638297
-0.023732977 0.11355542 0.25617021
-0.023190994 0.11346111 0.25595745
-0.022640456 0.11331964 0.2556383
-0.022091219 0.11317816 0.25531915
-0.021543287 0.11303669 0.255
-0.021005427 0.11294238 0.25478724
-0.020468436 0.11284807 0.25457448
-0.019932311 0.11275374 0.25436169
-0.019380817 0.11256512 0.25393617
-0.018838963 0.11242364 0.25361702
-0.018306095 0.11232933 0.25340426
-0.017781563 0.11228217 0.25329787
-0.017257469 0.11223502 0.2531915
-0.016733805 0.11218785 0.25308511
-0.016217392 0.11218785 0.25308511
-0.01569438 0.11214069 0.25297871
-0.015171804 0.11209355 0.25287235
-0.014631163 0.11190491 0.2524468
-0.01409226 0.11171629 0.25202128
-0.013560824 0.11157481 0.25170213
-0.01304172 0.11152764 0.25159574
-0.012528347 0.11152764 0.25159574
-0.012020055 0.11157481 0.25170213
-0.011511329 0.11162198 0.25180852
-0.010997523 0.11162198 0.25180852
-0.01094836 0.13666263 0.30829787
-0.010337093 0.13689843 0.30882978
-0.0097269984 0.13718137 0.30946809
-0.0091142999 0.13746431 0.3101064
-0.0084902663 0.13760579 0.31042552
-0.0078514684 0.13751148 0.31021276
-0.0072085881 0.13732284 0.30978724
-0.0065651857 0.13708706 0.30925533
-0.0059280363 0.13694559 0.30893618
-0.0052903653 0.13675694 0.30851063
-0.0046528238 0.13652116 0.30797872
-0.0040174527 0.13628538 0.30744681
-0.0033854258 0.13609675 0.30702129
-0.0027570471 0.13600242 0.3068085
-0.0021295368 0.13590811 0.30659574
-0.0015039385 0.13590811 0.30659574
-0.0008795592 0.13609675 0.30702129
-0.00025388179 0.13652116 0.30797872
0.00037647909 0.13722852 0.30957446
0.0010150843 0.13817167 0.31170213
0.0016629359 0.13916199 0.31393617
0.0023191238 0.14010513 0.31606382
0.0029780087 0.14076534 0.31755319
0.0036368982 0.14118977 0.31851065
0.0042939675 0.14142555 0.31904256
0.010156313 0.1414727 0.31914893
0.010782309 0.14114261 0.31840426
0.011397625 0.14071818 0.3174468
0.012004999 0.14024661 0.31638297
0.012608031 0.13977504 0.31531915
0.013220133 0.13944493 0.31457448
0.01384326 0.1392563 0.31414893
0.014469556 0.13911483 0.31382978
0.015094548 0.13897336 0.31351063
0.015734257 0.13897336 0.31351063
0.016396189 0.13916199 0.31393617
0.017082952 0.13953926 0.31478724
0.01430695 0.095352605 0.21510638
0.014745868 0.095352605 0.21510638
0.015184785 0.095352605 0.21510638
0.015623703 0.095352605 0.21510638
0.016054677 0.09530545 0.215
0.016493376 0.09530545 0.215
0.016932078 0.09530545 0.215
0.017362183 0.095258296 0.21489362
0.01777423 0.095116816 0.21457447
0.018194001 0.0950225 0.2143617
0.11626971 0.13609675 0.30702129
0.11726071 0.13652116 0.30797872
0.11809274 0.13675694 0.30851063
0.11872225 0.13675694 0.30851063
0.11926944 0.13666263 0.30829787
0.11998125 0.13675694 0.30851063
0.12094348 0.13713421 0.3093617
0.1220346 0.13765295 0.31053191
0.12317251 0.13821883 0.3118085
0.12423117 0.13869041 0.31287235
0.1253366 0.13920914 0.31404254
0.12640417 0.13968073 0.31510639
0.12764761 0.14034092 0.31659573
0.12889715 0.14100114 0.3180851
-0.17426442 0.12213182 0.27425531
-0.17377219 0.1221792 0.2743617
-0.17334668 0.12227394 0.27457446
-0.17305422 0.12246345 0.27500001
-0.17289346 0.1227477 0.27563831
-0.17266358 0.12298457 0.27617022
-0.17236523 0.12317406 0.27659574
-0.17199908 0.12331619 0.27691489
-0.17169748 0.12350568 0.27734041
-0.17132851 0.12364781 0.27765957
