# .PCD v0.7 - Point Cloud Data file format
VERSION 0.7
FIELDS x y z
SIZE 4 4 4
TYPE F F F
COUNT 1 1 1
WIDTH 1387
HEIGHT 1
VIEWPOINT 0 0 0 1 0 0 0
POINTS 1387
DATA ascii
0.18237385 0.135682 0.31627661
0.18289606 0.13559072 0.31606382
0.18347922 0.13554507 0.31595746
-0.12869519 0.087583326 0.20319149
-0.12828058 0.087583326 0.20319149
-0.12779903 0.087537467 0.20308511
-0.12745138 0.087583326 0.20319149
-0.12716979 0.087675035 0.20340426
-0.12695363 0.087812603 0.2037234
-0.12673616 0.087950163 0.20404255
-0.12638569 0.087996021 0.20414893
-0.12603477 0.088041872 0.20425531
-0.12574884 0.088133588 0.20446809
-0.12546206 0.088225298 0.20468085
-0.12530437 0.088408716 0.20510638
-0.12514496 0.088592134 0.20553191
-0.12491926 0.088729702 0.20585106
-0.12475659 0.08891312 0.2062766
-0.12459219 0.089096546 0.20670213
-0.12436213 0.089234114 0.20702128
-0.12419447 0.089417532 0.20744681
-0.12402508 0.08960095 0.20787235
-0.12385394 0.089784376 0.20829788
-0.12361802 0.089921936 0.20861702
-0.12338082 0.090059504 0.20893617
-0.1231423 0.090197071 0.20925532
-0.12302726 0.090426341 0.20978723
-0.12291005 0.090655617 0.21031915
-0.12272871 0.090839036 0.21074468
-0.12242217 0.090930752 0.21095745
-0.12217626 0.091068313 0.21127659
-0.12186777 0.091160029 0.21148936
-0.1215584 0.091251731 0.21170212
-0.12112642 0.091251731 0.21170212
-0.12081576 0.091343448 0.2119149
-0.12050422 0.091435157 0.21212766
-0.12019181 0.091526866 0.21234043
-0.11993853 0.091664426 0.21265957
-0.11974373 0.091847852 0.2130851
-0.1195472 0.09203127 0.21351063
-0.11928959 0.092168838 0.21382979
-0.11903067 0.092306405 0.21414894
-0.11865262 0.092352256 0.21425532
-0.11827413 0.092398115 0.2143617
-0.1179537 0.092489824 0.21457447
-0.11769066 0.092627391 0.21489362
-0.11742631 0.092764951 0.21521276
-0.11727631 0.092994228 0.21574467
-0.11706654 0.093177646 0.21617021
-0.11685503 0.093361072 0.21659574
-0.11658461 0.09349864 0.21691489
-0.11631288 0.093636207 0.21723405
-0.11609659 0.093819626 0.21765958
-0.11593509 0.094048902 0.21819149
-0.11571512 0.094232321 0.21861702
-0.11543732 0.094369888 0.21893618
-0.11515821 0.094507448 0.21925531
-0.11498912 0.094736733 0.21978724
-0.11487329 0.09501186 0.22042553
-0.11464442 0.095195279 0.22085106
-0.11424878 0.095241129 0.22095744
-0.11379793 0.095241129 0.22095744
-0.11334707 0.095241129 0.22095744
-0.11305928 0.095378697 0.2212766
-0.11287846 0.095607974 0.22180851
-0.11274941 0.095883109 0.22244681
-0.11261773 0.096158236 0.22308511
-0.11242997 0.096387513 0.22361702
-0.11218677 0.096570931 0.22404255
-0.11188877 0.096708499 0.2243617
-0.11164232 0.096891917 0.22478724
-0.11134151 0.097029485 0.22510639
-0.11103938 0.097167045 0.22542553
-0.11073596 0.097304612 0.22574468
-0.11043125 0.09744218 0.22606383
-0.11017697 0.097625606 0.22648937
-0.10992096 0.097809024 0.2269149
-0.10966322 0.097992443 0.22734043
-0.10935263 0.098130003 0.22765957
-0.10893898 0.098175868 0.22776596
-0.1086769 0.098359287 0.22819149
-0.10856441 0.098680265 0.22893617
-0.10849912 0.099047109 0.22978723
-0.10833034 0.099322245 0.23042554
-0.10800955 0.099459805 0.23074467
-0.10753872 0.099459805 0.23074467
-0.1070679 0.099459805 0.23074467
-0.10664622 0.099505663 0.23085107
-0.10627303 0.099597372 0.23106383
-0.1059964 0.099780791 0.23148936
-0.10571803 0.099964216 0.23191489
-0.10558276 0.1002852 0.23265958
-0.10544445 0.10060618 0.23340425
-0.10530309 0.10092717 0.23414893
-0.10511108 0.10120231 0.23478724
-0.10477423 0.10133987 0.23510638
-0.10438889 0.10143158 0.23531915
-0.1039557 0.10147744 0.23542553
-0.1036156 0.101615 0.23574468
-0.10327419 0.10175256 0.23606382
-0.1029778 0.10193598 0.23648936
-0.10267968 0.1021194 0.23691489
-0.10242572 0.10234869 0.23744681
-0.10216958 0.10257796 0.23797873
-0.10186581 0.10276138 0.23840426
-0.10160555 0.10299066 0.23893617
-0.10129809 0.10317408 0.2393617
-0.1010337 0.10340335 0.23989362
-0.10072256 0.10358677 0.24031915
-0.10045405 0.10381605 0.24085106
-0.10013921 0.10399947 0.24127659
-0.099866569 0.10422874 0.2418085
-0.099591769 0.10445802 0.24234043
-0.099184282 0.10454973 0.24255319
-0.098732643 0.10459558 0.24265957
-0.098194435 0.10454973 0.24255319
-0.09778522 0.10464144 0.24276596
-0.097503029 0.10487071 0.24329787
-0.097261086 0.10514584 0.24393617
-0.096974343 0.10537512 0.24446808
-0.09655948 0.10546683 0.24468085
-0.096143745 0.10555854 0.24489361
-0.095810242 0.10574196 0.24531914
-0.095598996 0.10606295 0.24606383
-0.095343597 0.10633808 0.24670213
-0.094962895 0.10647564 0.24702127
-0.094458856 0.10647564 0.24702127
-0.094035745 0.10656735 0.24723405
-0.093732506 0.10679663 0.24776596
-0.093587205 0.10720932 0.2487234
-0.093398184 0.10757617 0.24957447
-0.093166098 0.10789715 0.25031915
-0.092812836 0.10808057 0.25074467
-0.092457846 0.108264 0.25117022
-0.092023231 0.1083557 0.25138298
-0.091587737 0.10844741 0.25159574
-0.091189899 0.10858498 0.25191489
-0.090867333 0.10881425 0.2524468
-0.090580679 0.10908939 0.25308511
-0.090291418 0.10936452 0.25372341
-0.089961909 0.10959379 0.25425532
-0.089630224 0.10982307 0.25478724
-0.089221962 0.10996064 0.25510639
-0.088775404 0.11005235 0.25531915
-0.088327974 0.11014405 0.25553191
-0.0879528 0.11032748 0.25595745
-0.087684892 0.11064846 0.25670213
-0.087341703 0.11087774 0.25723404
-0.086888634 0.11096944 0.2574468
-0.086256273 0.11083189 0.25712767
-0.085625194 0.11069432 0.25680852
-0.085171692 0.11078603 0.25702128
-0.084927537 0.11115287 0.25787234
-0.08474955 0.11161142 0.25893617
-0.084671021 0.11220753 0.26031914
-0.084586851 0.11280365 0.26170212
-0.084394537 0.1132622 0.26276594
-0.084062077 0.11353733 0.26340425
-0.083490878 0.11349149 0.26329789
-0.082786039 0.1132622 0.26276594
-0.082149982 0.11312465 0.26244682
-0.081647545 0.11317049 0.26255319
-0.081374735 0.11353733 0.26340425
-0.081163749 0.11399588 0.26446807
-0.080948435 0.11445445 0.26553193
-0.080664337 0.11482129 0.26638299
-0.080376767 0.11518813 0.26723406
-0.080053948 0.11550911 0.26797873
-0.079728082 0.11583009 0.2687234
-0.079430528 0.11619693 0.26957446
-0.079098381 0.11651792 0.27031916
-0.078732267 0.11679305 0.27095744
-0.078302167 0.11697648 0.27138299
-0.077870324 0.11715989 0.27180851
-0.077285454 0.11711404 0.27170214
-0.07667096 0.11702232 0.27148935
-0.076057345 0.11693062 0.27127659
-0.075533427 0.11697648 0.27138299
-0.075067855 0.11711404 0.27170214
-0.074688502 0.11738916 0.27234042
-0.074422382 0.11784771 0.27340424
-0.074151926 0.11830627 0.27446809
-0.073848598 0.11871897 0.27542552
-0.073484756 0.11903996 0.27617022
-0.073089771 0.11931508 0.2768085
-0.072720066 0.11963607 0.2775532
-0.072264351 0.11981949 0.27797872
-0.071861774 0.12009462 0.27861702
-0.071483813 0.12041561 0.2793617
-0.071129821 0.12078245 0.28021276
-0.070691995 0.12101172 0.28074467
-0.070198856 0.12114929 0.28106382
-0.069651708 0.12119514 0.28117022
-0.069182537 0.12137856 0.28159574
-0.068763465 0.1216537 0.28223404
-0.068367489 0.12197468 0.28297871
-0.067942992 0.12224981 0.28361702
-0.067490615 0.12247909 0.28414893
-0.067061126 0.12275422 0.28478724
-0.066604197 0.12298349 0.28531915
-0.066120476 0.12316691 0.28574467
-0.065635026 0.12335034 0.28617021
-0.065172017 0.12357961 0.28670213
-0.064682879 0.12376304 0.28712767
-0.064215742 0.12399232 0.28765959
-0.063722908 0.12417573 0.2880851
-0.063251652 0.124405 0.28861701
-0.062847517 0.12477184 0.28946808
-0.062485665 0.12523039 0.2905319
-0.062096816 0.12564309 0.29148936
-0.06168161 0.12600994 0.29234043
-0.061196242 0.12623921 0.29287234
-0.060686696 0.12642264 0.29329789
-0.060175408 0.12660605 0.2937234
-0.059683964 0.12683533 0.29425532
-0.059211712 0.12711047 0.29489362
-0.058736853 0.1273856 0.29553193
-0.058196604 0.12752315 0.29585105
-0.057613641 0.127569 0.29595745
-0.057050735 0.12766072 0.2961702
-0.056547783 0.12788999 0.29670212
-0.056122899 0.12830269 0.29765958
-0.055713948 0.12876125 0.2987234
-0.055261403 0.12912808 0.29957446
-0.054785978 0.12944907 0.30031914
-0.054326709 0.12981591 0.3011702
-0.053901915 0.13027447 0.30223405
-0.053472772 0.13073301 0.30329788
-0.053002212 0.13109986 0.30414894
-0.052509855 0.13142084 0.30489361
-0.051996361 0.13169597 0.30553192
-0.051462371 0.13192526 0.30606383
-0.050943881 0.13220039 0.30670214
-0.050457694 0.13256723 0.3075532
-0.050036974 0.13311748 0.30882978
-0.049662102 0.1338053 0.31042552
-0.04924712 0.13440143 0.3118085
-0.048776738 0.13485998 0.31287235
-0.048203804 0.1350434 0.31329787
-0.047596831 0.1351351 0.31351063
-0.046973057 0.13518097 0.31361702
-0.046380281 0.13531853 0.31393617
-0.045786206 0.1354561 0.31425533
-0.045206107 0.13563952 0.31468084
-0.044639342 0.13586879 0.31521276
-0.044114947 0.13623562 0.31606382
-0.043630976 0.13674004 0.31723404
-0.043185472 0.13738202 0.31872341
0.17905286 0.13724445 0.31840426
0.1796425 0.13719858 0.31829786
0.18029198 0.13719858 0.31829786
0.18094145 0.13719858 0.31829786
0.18153025 0.13715275 0.3181915
0.18199678 0.13701518 0.31787235
0.18227862 0.13674004 0.31723404
0.18261921 0.13651076 0.31670213
0.18301921 0.13632736 0.31627661
0.18354098 0.13623562 0.31606382
-0.12863661 0.087675422 0.2024468
-0.12815614 0.087629355 0.20234042
-0.12767611 0.087583281 0.20223404
-0.12726347 0.087583281 0.20223404
-0.12691754 0.087629355 0.20234042
-0.1267042 0.087767571 0.20265958
-0.12655586 0.087951861 0.20308511
-0.12640579 0.088136151 0.20351064
-0.12612225 0.088228293 0.2037234
-0.12577219 0.08827436 0.20382978
-0.12548715 0.088366508 0.20404255
-0.12520121 0.08845865 0.20425531
-0.12504441 0.08864294 0.20468085
-0.12482109 0.088781156 0.205
-0.12459647 0.088919379 0.20531915
-0.12437055 0.089057595 0.2056383
-0.12414332 0.089195803 0.20595744
-0.12397869 0.089380093 0.20638297
-0.12387602 0.089610457 0.20691489
-0.1237077 0.089794748 0.20734042
-0.12353766 0.08997903 0.20776595
-0.1232398 0.090071179 0.20797873
-0.12294106 0.09016332 0.20819148
-0.12276667 0.09034761 0.20861702
-0.12259054 0.090531901 0.20904255
-0.12247485 0.090762258 0.20957446
-0.12223308 0.090900481 0.20989361
-0.12199001 0.091038696 0.21021277
-0.12174564 0.091176912 0.21053192
-0.12149995 0.091315128 0.21085106
-0.12113081 0.091361202 0.21095745
-0.12070036 0.091361202 0.21095745
-0.1202699 0.091361202 0.21095745
-0.11996032 0.091453344 0.21117021
-0.11971008 0.091591567 0.21148936
-0.11951854 0.091775857 0.2119149
-0.11932527 0.09196014 0.21234043
-0.11913025 0.09214443 0.21276596
-0.11893351 0.09232872 0.21319149
-0.11861675 0.092420861 0.21340425
-0.11829914 0.09251301 0.21361703
-0.11792196 0.092559077 0.21372341
-0.11760282 0.092651218 0.21393616
-0.11734108 0.092789441 0.21425532
-0.11707804 0.092927657 0.21457447
-0.11692934 0.093158022 0.21510638
-0.11672087 0.093342304 0.21553192
-0.11651067 0.093526594 0.21595745
-0.11618436 0.093618736 0.21617021
-0.1158572 0.093710884 0.21638298
-0.11558591 0.093849108 0.21670213
-0.11542636 0.094079465 0.21723405
-0.11520834 0.094263755 0.21765958
-0.11493249 0.094401971 0.21797873
-0.11471121 0.094586253 0.21840425
-0.11459951 0.094862692 0.21904255
-0.11442976 0.095093049 0.21957447
-0.11420263 0.095277339 0.22
-0.11375372 0.095277339 0.22
-0.11325003 0.095231272 0.21989362
-0.11285592 0.095277339 0.22
-0.11257008 0.095415555 0.22031915
-0.11239122 0.095645919 0.22085106
-0.1122641 0.095922351 0.22148935
-0.11208069 0.096152715 0.22202128
-0.1118951 0.096383072 0.22255319
-0.11170734 0.096613437 0.22308511
-0.11146435 0.09679772 0.22351064
-0.11121963 0.09698201 0.22393617
-0.11097317 0.0971663 0.2243617
-0.11072497 0.09735059 0.22478724
-0.11037067 0.097442731 0.22499999
-0.11006747 0.097580947 0.22531915
-0.10981471 0.097765237 0.22574468
-0.10961176 0.097995602 0.22627659
-0.10940663 0.098225959 0.2268085
-0.10909713 0.098364174 0.22712766
-0.10868457 0.098410249 0.22723404
-0.1083729 0.098548464 0.22755319
-0.10816082 0.098778829 0.2280851
-0.10804705 0.099101335 0.22882979
-0.10788021 0.099377774 0.22946809
-0.10756138 0.099515982 0.22978723
-0.10714208 0.099562056 0.22989361
-0.10667299 0.099562056 0.22989361
-0.1062039 0.099562056 0.22989361
-0.10578375 0.099608131 0.23
-0.10546057 0.099746339 0.23031914
-0.10523309 0.099976711 0.23085107
-0.10509998 0.10029921 0.23159574
-0.1050119 0.10066779 0.2324468
-0.10492035 0.10103636 0.23329787
-0.10477769 0.10135888 0.23404256
-0.10453718 0.10158923 0.23457447
-0.10420012 0.10172745 0.23489362
-0.10381477 0.10181959 0.23510638
-0.10342857 0.10191174 0.23531915
-0.10304148 0.10200388 0.23553191
-0.10265354 0.10209603 0.23574468
-0.10231083 0.10223424 0.23606382
-0.10201271 0.10241853 0.23648936
-0.10175852 0.1026489 0.23702128
-0.10150217 0.10287926 0.23755319
-0.10119841 0.10306355 0.23797873
-0.10093793 0.1032939 0.23851064
-0.10063047 0.10347819 0.23893617
-0.10032127 0.10366248 0.2393617
-0.10001034 0.10384677 0.23978724
-0.099741831 0.10407713 0.24031915
-0.099515088 0.10435357 0.24095745
-0.099285737 0.10463 0.24159575
-0.098923273 0.10476822 0.2419149
-0.09842965 0.10476822 0.2419149
-0.097892962 0.10472214 0.2418085
-0.097442418 0.10476822 0.2419149
-0.097119331 0.10495251 0.24234043
-0.096879341 0.10522894 0.24297872
-0.096594542 0.1054593 0.24351063
-0.096223623 0.10559752 0.24382979
-0.095851392 0.10573573 0.24414894
-0.095560953 0.10596609 0.24468085
-0.095309675 0.10624252 0.24531914
-0.095014684 0.10647289 0.24585107
-0.094594821 0.10656504 0.24606383
-0.094052061 0.10651896 0.24595745
-0.093509734 0.10647289 0.24585107
-0.093169063 0.10665718 0.2462766
-0.09298677 0.10702575 0.24712765
-0.092801005 0.10739433 0.24797872
-0.092572175 0.10771684 0.2487234
-0.092261553 0.1079472 0.24925531
-0.091870442 0.10808542 0.24957447
-0.091439083 0.10817757 0.24978724
-0.091045581 0.10831578 0.25010639
-0.090689279 0.10850006 0.25053191
-0.090369537 0.10873043 0.25106382
-0.0900857 0.10900686 0.25170213
-0.089799263 0.1092833 0.25234044
-0.08951021 0.10955972 0.25297871
-0.089218557 0.10983616 0.25361702
-0.088887095 0.11006652 0.25414893
-0.08844249 0.11015866 0.25436169
-0.087997027 0.11025082 0.25457448
-0.08762379 0.1104351 0.255
-0.087321505 0.11071154 0.2556383
-0.08701662 0.11098797 0.25627661
-0.086601399 0.11112618 0.25659573
-0.086042143 0.11108011 0.25648937
-0.085518785 0.11108011 0.25648937
-0.085030675 0.11112618 0.25659573
-0.084647246 0.11131047 0.25702128
-0.084401362 0.11167905 0.25787234
-0.084221199 0.11213977 0.25893617
-0.084139846 0.11273871 0.26031914
-0.084018692 0.11329158 0.26159576
-0.083688617 0.11356801 0.26223403
-0.083187275 0.11361408 0.26234043
-0.082517907 0.11342978 0.26191488
-0.081883587 0.11329158 0.26159576
-0.081349805 0.11329158 0.26159576
-0.081013218 0.11356801 0.26223403
-0.080739327 0.11393658 0.2630851
-0.080526829 0.11439732 0.26414895
-0.08030998 0.11485804 0.26521277
-0.080056794 0.11527268 0.2661702
-0.079704367 0.11554912 0.26680851
-0.079412453 0.11591769 0.26765957
-0.079148419 0.11633234 0.26861703
-0.078880467 0.11674699 0.26957446
-0.078484967 0.11697735 0.27010638
-0.077903137 0.11693129 0.27000001
-0.077260777 0.11679307 0.26968086
-0.076589458 0.11660877 0.26925531
-0.07619027 0.11683913 0.26978722
-0.075699434 0.11693129 0.27000001
-0.075237334 0.11706951 0.27031916
-0.07477393 0.11720771 0.27063829
-0.074367575 0.11743807 0.2711702
-0.074045926 0.11780665 0.27202126
-0.073778294 0.11826738 0.27308512
-0.073449269 0.11863596 0.27393618
-0.073116764 0.11900454 0.27478725
-0.072724603 0.11928096 0.27542552
-0.072329849 0.1195574 0.27606383
-0.071877167 0.11974168 0.27648935
-0.071450196 0.11997205 0.27702129
-0.071075492 0.12029456 0.27776596
-0.070751764 0.12070921 0.27872342
-0.070370547 0.12103171 0.27946809
-0.069880016 0.12116993 0.27978724
-0.069335468 0.12121599 0.27989361
-0.068842761 0.12135421 0.28021276
-0.068400592 0.12158457 0.28074467
-0.068007663 0.12190709 0.28148937
-0.067586198 0.12218351 0.28212765
-0.067162134 0.12245995 0.28276595
-0.066760518 0.12278245 0.28351063
-0.066355862 0.12310496 0.28425533
-0.065923542 0.12338138 0.2848936
-0.065464236 0.12361176 0.28542554
-0.065002747 0.12384212 0.28595746
-0.064515114 0.1240264 0.28638297
-0.064002007 0.12416462 0.28670213
-0.063511126 0.12434892 0.28712767
-0.063041829 0.12457927 0.28765959
-0.062616542 0.12490177 0.28840426
-0.062211107 0.12527035 0.28925532
-0.061824862 0.12568501 0.29021278
-0.061412252 0.12605357 0.29106382
-0.060996179 0.12642215 0.29191488
-0.060554624 0.12674467 0.29265958
-0.060088232 0.1270211 0.29329789
-0.059597656 0.12725146 0.2938298
-0.059083544 0.12743574 0.29425532
-0.058567703 0.12762004 0.29468086
-0.058029193 0.12775825 0.29499999
-0.057427254 0.12775825 0.29499999
-0.05684581 0.12780432 0.29510638
-0.056304485 0.12794255 0.29542553
-0.055842083 0.12826504 0.2961702
-0.055416331 0.12867969 0.29712766
-0.054967046 0.12904827 0.29797873
-0.05453369 0.12946291 0.29893616
-0.054096431 0.12987757 0.29989362
-0.053655267 0.13029222 0.30085108
-0.053191435 0.1306608 0.30170214
-0.052705593 0.13098331 0.30244681
-0.052216709 0.13130581 0.30319148
-0.051706687 0.13158225 0.30382979
-0.051194057 0.13185868 0.3044681
-0.050678819 0.13213511 0.30510637
-0.050195888 0.13250369 0.30595744
-0.049761191 0.13301048 0.30712765
-0.049338743 0.13356335 0.30840427
-0.048911076 0.13411622 0.30968085
-0.048411865 0.1344848 0.31053191
-0.04784371 0.1346691 0.31095746
-0.04722536 0.13471515 0.31106383
-0.046638448 0.13485338 0.31138298
-0.046065945 0.13503766 0.3118085
-0.045507211 0.13526803 0.31234044
-0.044931021 0.13545232 0.31276596
-0.044383228 0.13572875 0.31340426
-0.043921918 0.13628161 0.31468084
-0.043499295 0.1369727 0.31627661
-0.043070156 0.13766378 0.31787235
-0.042577721 0.13817057 0.31904256
0.17905286 0.13789414 0.31840426
0.1796425 0.13784806 0.31829786
0.18029198 0.13784806 0.31829786
0.18100193 0.13789414 0.31840426
0.18171233 0.13794021 0.31851065
0.18224041 0.13784806 0.31829786
0.18270651 0.13770984 0.31797871
0.18298727 0.13743342 0.31734043
0.183327 0.13720307 0.31680852
0.18378811 0.13706484 0.31648937
-0.12802824 0.087671906 0.20148936
-0.12754974 0.087625615 0.20138298
-0.12713882 0.087625615 0.20138298
-0.12679484 0.087671906 0.20148936
-0.12645043 0.087718196 0.20159574
-0.12630513 0.087903351 0.20202127
-0.1262244 0.088134803 0.2025532
-0.1260754 0.088319957 0.20297873
-0.12592468 0.088505119 0.20340426
-0.12564091 0.088597693 0.20361702
-0.12535629 0.088690266 0.20382978
-0.125136 0.088829137 0.20414893
-0.12491443 0.088968009 0.20446809
-0.12469155 0.08910688 0.20478724
-0.1244028 0.089199454 0.205
-0.12411319 0.089292035 0.20521277
-0.1238227 0.089384608 0.20542553
-0.12365916 0.08956977 0.20585106
-0.12355758 0.089801215 0.20638297
-0.12345382 0.090032659 0.20691489
-0.12322138 0.090171531 0.20723404
-0.12286156 0.090217814 0.20734042
-0.12256414 0.090310395 0.20755319
-0.12226584 0.090402976 0.20776595
-0.12209145 0.09058813 0.20819148
-0.12191532 0.090773284 0.20861702
-0.12167551 0.090912156 0.20893617
-0.12143439 0.091051027 0.20925532
-0.12119196 0.091189891 0.20957446
-0.12094824 0.091328762 0.20989361
-0.12058104 0.091375045 0.20999999
-0.12015254 0.091375045 0.20999999
-0.11972404 0.091375045 0.20999999
-0.11941642 0.091467626 0.21021277
-0.11922835 0.091652788 0.2106383
-0.11909854 0.091884233 0.21117021
-0.11896656 0.092115678 0.21170212
-0.11883242 0.092347123 0.21223404
-0.11863676 0.092532277 0.21265957
-0.1183211 0.092624858 0.21287234
-0.11800456 0.092717439 0.2130851
-0.11762847 0.092763729 0.21319149
-0.11725194 0.09281002 0.21329787
-0.11699151 0.092948891 0.21361703
-0.11672976 0.093087748 0.21393616
-0.11658238 0.0933192 0.21446809
-0.11637521 0.093504362 0.21489362
-0.1161089 0.093643226 0.21521276
-0.11578412 0.093735807 0.21542554
-0.11540151 0.09378209 0.21553192
-0.11513196 0.093920961 0.21585107
-0.1148611 0.094059825 0.21617021
-0.11464525 0.094244987 0.21659574
-0.11448376 0.094476432 0.21712767
-0.11426421 0.094661593 0.2175532
-0.11415425 0.094939329 0.21819149
-0.11398624 0.095170774 0.2187234
-0.11370561 0.095309637 0.21904255
-0.11325867 0.095309637 0.21904255
-0.11275693 0.095263354 0.21893618
-0.11236477 0.095309637 0.21904255
-0.11208089 0.095448509 0.21936171
-0.11190397 0.095679954 0.21989362
-0.1117249 0.095911399 0.22042553
-0.11154364 0.096142843 0.22095744
-0.11136022 0.096374288 0.22148935
-0.11117464 0.09660574 0.22202128
-0.11098687 0.096837185 0.22255319
-0.11084978 0.097114921 0.22319148
-0.11071008 0.097392656 0.22382979
-0.11046296 0.097577818 0.22425532
-0.11010975 0.097670391 0.22446808
-0.10975567 0.097762972 0.22468086
-0.10945246 0.097901836 0.22499999
-0.10930256 0.098179579 0.2256383
-0.10909873 0.098411024 0.22617021
-0.10884164 0.098596178 0.22659574
-0.10848103 0.098688751 0.2268085
-0.10806891 0.098735049 0.2269149
-0.10775724 0.098873913 0.22723404
-0.10759497 0.099151649 0.22787234
-0.10743008 0.099429384 0.22851063
-0.107163 0.099614538 0.22893617
-0.10679503 0.099707119 0.22914894
-0.10632746 0.099707119 0.22914894
-0.10581074 0.099660836 0.22904256
-0.10534339 0.099660836 0.22904256
-0.10507088 0.099845991 0.22946809
-0.10484513 0.10007744 0.23
-0.10471376 0.10040146 0.23074467
-0.10462742 0.10077177 0.23159574
-0.10448976 0.1010958 0.23234043
-0.10434906 0.10141983 0.23308511
-0.1041105 0.10165127 0.23361702
-0.10386977 0.10188272 0.23414893
-0.10353293 0.10202159 0.23446809
-0.10319478 0.10216045 0.23478724
-0.10276224 0.10220674 0.23489362
-0.1023756 0.10229932 0.23510638
-0.10198808 0.1023919 0.23531915
-0.10169148 0.10257706 0.23574468
-0.10139315 0.10276221 0.23617022
-0.10109307 0.10294738 0.23659575
-0.10079126 0.10313253 0.23702128
-0.10048771 0.10331769 0.23744681
-0.10018243 0.10350285 0.23787235
-0.099830814 0.10364171 0.23819149
-0.09952227 0.10382687 0.23861702
-0.099300303 0.10410461 0.23925532
-0.099163599 0.10447492 0.24010639
-0.098979697 0.10479894 0.24085106
-0.098662257 0.1049841 0.24127659
-0.098169938 0.1049841 0.24127659
-0.097634561 0.10493781 0.24117021
-0.097185306 0.1049841 0.24127659
-0.096863523 0.10516926 0.24170212
-0.09658242 0.1054007 0.24223404
-0.096299157 0.10563216 0.24276596
-0.095929742 0.10577101 0.2430851
-0.095600791 0.10595617 0.24351063
-0.095353216 0.10623391 0.24414894
-0.095103018 0.10651165 0.24478723
-0.094809107 0.10674309 0.24531914
-0.094349444 0.10678939 0.24542554
-0.0937673 0.1066968 0.24521276
-0.093186028 0.10660423 0.245
-0.092766605 0.1066968 0.24521276
-0.092506431 0.10697454 0.24585107
-0.092283458 0.10729856 0.24659574
-0.092057452 0.10762259 0.24734043
-0.091749646 0.10785403 0.24787234
-0.091361351 0.1079929 0.24819149
-0.090932809 0.10808548 0.24840425
-0.09054213 0.10822435 0.2487234
-0.090150148 0.10836322 0.24904256
-0.089833446 0.10859466 0.24957447
-0.089552648 0.1088724 0.25021276
-0.089269243 0.10915013 0.25085106
-0.089058518 0.10952045 0.25170213
-0.088806897 0.10984447 0.2524468
-0.088552237 0.1101685 0.2531915
-0.088183567 0.11035366 0.25361702
-0.087776385 0.11049253 0.25393617
-0.08740446 0.11067767 0.25436169
-0.087103471 0.11095542 0.255
-0.08679989 0.11123315 0.2556383
-0.086421877 0.11141831 0.25606382
-0.085970774 0.1115109 0.25627661
-0.085483313 0.11155718 0.25638297
-0.085030675 0.11164975 0.25659573
-0.08454214 0.11169604 0.25670213
-0.084157631 0.11188121 0.25712767
-0.083875179 0.11220523 0.25787234
-0.083692849 0.11266812 0.25893617
-0.083574511 0.1132236 0.26021278
-0.083315164 0.11359391 0.26106384
-0.082883663 0.11373277 0.26138297
-0.082283296 0.1136402 0.26117021
-0.081650481 0.11350133 0.26085106
-0.081118226 0.11350133 0.26085106
-0.080717437 0.11368649 0.2612766
-0.080412842 0.11401051 0.26202127
-0.08017008 0.11442712 0.26297873
-0.080116697 0.11512145 0.26457447
-0.079800814 0.11544547 0.26531914
-0.079386562 0.11563064 0.26574469
-0.079033703 0.11590838 0.26638299
-0.078803614 0.11637127 0.26744682
-0.078600317 0.11688045 0.26861703
-0.07820677 0.1171119 0.26914895
-0.077565491 0.11697303 0.26882979
-0.07683409 0.11669528 0.26819149
-0.076165818 0.11651014 0.26776597
-0.075769663 0.11674158 0.26829788
-0.075401165 0.11701931 0.26893616
-0.074970849 0.11720447 0.2693617
-0.07453879 0.11738963 0.26978722
-0.074134186 0.11762108 0.27031916
-0.073756352 0.11789881 0.27095744
-0.073404662 0.11822284 0.27170214
-0.073049925 0.11854686 0.27244681
-0.072692156 0.11887088 0.27319148
-0.072331354 0.11919492 0.27393618
-0.071967497 0.11951894 0.27468085
-0.071545303 0.11975038 0.27521276
-0.071120933 0.11998183 0.27574468
-0.070776053 0.12035214 0.27659574
-0.070427708 0.12072246 0.27744681
-0.070049092 0.12104648 0.27819148
-0.0695346 0.12113906 0.27840427
-0.068992876 0.12118535 0.27851063
-0.068476863 0.12127794 0.27872342
-0.068037733 0.12150938 0.27925533
-0.06764783 0.1218334 0.28
-0.067254893 0.12215742 0.28074467
-0.066833653 0.12243516 0.28138298
-0.066459909 0.12280548 0.28223404
-0.066082686 0.12317579 0.28308511
-0.065701999 0.1235461 0.28393617
-0.065293431 0.12387013 0.28468084
-0.064833462 0.12410157 0.28521276
-0.064347357 0.12428673 0.2856383
-0.063859515 0.12447189 0.28606382
-0.063369937 0.12465705 0.28648937
-0.062878624 0.1248422 0.28691489
-0.062385574 0.12502736 0.28734043
-0.061913665 0.1252588 0.28787234
-0.061484911 0.12558283 0.28861701
-0.061075564 0.12595314 0.28946808
-0.060729433 0.12646233 0.2906383
-0.060356513 0.12692522 0.29170212
-0.059957463 0.12734182 0.29265958
-0.059489768 0.12761956 0.29329789
-0.058955379 0.12775843 0.29361701
-0.058398556 0.12785101 0.2938298
-0.057840858 0.12794359 0.29404256
-0.057282291 0.12803616 0.29425532
-0.056702368 0.12808245 0.29436171
-0.056162558 0.12822133 0.29468086
-0.055661563 0.12845278 0.29521278
-0.055217922 0.12882309 0.29606384
-0.054790426 0.12923968 0.29702127
-0.054378431 0.12970257 0.29808509
-0.053942911 0.13011917 0.29904255
-0.053465534 0.1304432 0.29978722
-0.052947607 0.13067465 0.30031914
-0.052427512 0.13090611 0.30085108
-0.051923562 0.13118383 0.30148935
-0.051417012 0.13146158 0.30212766
-0.050925743 0.13178559 0.30287233
-0.050413765 0.13206333 0.30351064
-0.049934089 0.13243365 0.3043617
-0.049468178 0.13285026 0.30531916
-0.049032394 0.13335943 0.30648935
-0.048558231 0.13377604 0.30744681
-0.04806358 0.13414635 0.30829787
-0.047499977 0.13433149 0.30872339
-0.046886191 0.13437779 0.30882978
-0.046303835 0.13451667 0.30914894
-0.045751609 0.13474812 0.30968085
-0.045212716 0.13502584 0.31031916
-0.044671219 0.13530359 0.31095746
-0.044157241 0.1356739 0.3118085
-0.04369919 0.13622937 0.31308511
-0.043309081 0.13701628 0.3148936
-0.042897183 0.13775691 0.31659573
-0.042378958 0.13817352 0.31755319
-0.04178692 0.13835867 0.31797871
-0.041151859 0.13840497 0.3180851
-0.04052991 0.13849753 0.31829786
-0.039933752 0.13868271 0.31872341
0.17846277 0.13859013 0.31851065
0.17899303 0.13849753 0.31829786
0.17952242 0.13840497 0.3180851
0.1801112 0.13835867 0.31797871
0.18094145 0.13849753 0.31829786
0.18171233 0.13859013 0.31851065
0.18248405 0.13868271 0.31872341
0.18295102 0.13854383 0.31840426
0.18335533 0.13835867 0.31797871
0.1836348 0.13808094 0.31734043
0.18409699 0.13794208 0.31702128
-0.12741987 0.087664485 0.20053191
-0.12707807 0.087710984 0.20063829
-0.12673584 0.087757491 0.20074467
-0.12639317 0.087804005 0.20085107
-0.12618352 0.087943517 0.20117021
-0.12603909 0.088129543 0.20159574
-0.12595922 0.088362083 0.20212767
-0.1258111 0.088548109 0.2025532
-0.12566122 0.088734135 0.20297873
-0.12550963 0.088920154 0.20340426
-0.12529087 0.089059673 0.2037234
-0.12507081 0.089199193 0.20404255
-0.12478444 0.089292198 0.20425531
-0.12449722 0.089385219 0.20446809
-0.12414456 0.089431725 0.20457447
-0.12379148 0.089478225 0.20468085
-0.1235662 0.089617752 0.205
-0.12333963 0.089757271 0.20531915
-0.12330282 0.090036303 0.20595744
-0.12319992 0.090268835 0.20648935
-0.12290511 0.090361848 0.20670213
-0.12248334 0.090361848 0.20670213
-0.12212439 0.090408355 0.20680851
-0.121765 0.090454862 0.20691489
-0.12159235 0.090640888 0.20734042
-0.12135579 0.090780407 0.20765957
-0.12105598 0.09087342 0.20787235
-0.12075529 0.090966433 0.2080851
-0.12051526 0.091105953 0.20840426
-0.12027393 0.091245472 0.20872341
-0.11997019 0.091338485 0.20893617
-0.11960474 0.091384992 0.20904255
-0.11923885 0.091431499 0.20914894
-0.11899338 0.091571018 0.20946808
-0.11880683 0.091757037 0.20989361
-0.11873855 0.092036083 0.21053192
-0.11872744 0.092361622 0.21127659
-0.11859417 0.092594162 0.21180852
-0.11839937 0.09278018 0.21223404
-0.11802544 0.092826687 0.21234043
-0.11765108 0.092873193 0.21244681
-0.11727629 0.0929197 0.21255319
-0.11690105 0.092966206 0.21265957
-0.11664192 0.093105726 0.21297872
-0.11638149 0.093245246 0.21329787
-0.1162354 0.093477778 0.21382979
-0.11602954 0.093663804 0.21425532
-0.11570714 0.093756817 0.21446809
-0.11538389 0.09384983 0.21468085
-0.11500279 0.093896329 0.21478723
-0.11467802 0.09398935 0.215
-0.11435237 0.094082355 0.21521276
-0.11413847 0.094268382 0.21563829
-0.11397892 0.094500914 0.21617021
-0.11381721 0.094733454 0.21670213
-0.11370899 0.095012486 0.21734042
-0.11348727 0.095198512 0.21776596
-0.1132086 0.095338032 0.21808511
-0.11276361 0.095338032 0.21808511
-0.11231861 0.095338032 0.21808511
-0.11198276 0.095431045 0.21829787
-0.11170039 0.095570564 0.21861702
-0.11152501 0.095803097 0.21914893
-0.11129352 0.095989123 0.21957447
-0.11106031 0.096175142 0.22
-0.11082535 0.096361168 0.22042553
-0.1106952 0.096640207 0.22106382
-0.11056245 0.096919246 0.22170213
-0.11053276 0.097291298 0.22255319
-0.11044698 0.097616844 0.22329788
-0.11020096 0.09780287 0.22372341
-0.10984883 0.097895883 0.22393617
-0.10944386 0.097942382 0.22404255
-0.10909021 0.098035403 0.22425532
-0.10883876 0.098221429 0.22468086
-0.1086882 0.09850046 0.22531915
-0.10848394 0.098732993 0.22585106
-0.10817575 0.098872513 0.22617021
-0.10781559 0.098965533 0.22638299
-0.10740411 0.099012032 0.22648937
-0.10714289 0.099198058 0.2269149
-0.10692994 0.099430591 0.22744681
-0.10666504 0.099616617 0.22787234
-0.10634881 0.099756137 0.22819149
-0.10593256 0.099802643 0.22829787
-0.10546672 0.099802643 0.22829787
-0.10504981 0.09984915 0.22840425
-0.1047299 0.099988669 0.22872341
-0.10455416 0.1002677 0.2293617
-0.10437582 0.10054675 0.23
-0.10424294 0.10087229 0.23074467
-0.10401133 0.10110482 0.2312766
-0.10382517 0.10138386 0.23191489
-0.103589 0.10161639 0.2324468
-0.10330347 0.10180242 0.23287234
-0.10306317 0.10203494 0.23340425
-0.10277396 0.10222097 0.23382978
-0.102483 0.10240699 0.23425531
-0.10209765 0.10250001 0.23446809
-0.10175756 0.10263953 0.23478724
-0.10141614 0.10277905 0.23510638
-0.10107344 0.10291857 0.23542553
-0.10077488 0.10310459 0.23585106
-0.10042935 0.10324411 0.23617022
-0.10008252 0.10338363 0.23648936
-0.099689573 0.10347664 0.23670213
-0.099295765 0.10356966 0.23691489
-0.098989829 0.10375568 0.23734042
-0.098814614 0.10408123 0.23808511
-0.098768167 0.10454629 0.23914893
-0.098673671 0.10496485 0.24010639
-0.098444752 0.10524388 0.24074468
-0.097996801 0.10529039 0.24085106
-0.097505353 0.10529039 0.24085106
-0.09709961 0.1053834 0.24106383
-0.096735626 0.10552292 0.24138297
-0.096412756 0.10570895 0.2418085
-0.096045956 0.10584847 0.24212766
-0.095677845 0.10598799 0.24244681
-0.095308445 0.10612751 0.24276596
-0.095062375 0.10640655 0.24340425
-0.094855033 0.10673209 0.24414894
-0.094562426 0.10696462 0.24468085
-0.094104059 0.10701112 0.24478723
-0.093563899 0.10696462 0.24468085
-0.092983708 0.1068716 0.24446808
-0.092525132 0.10691812 0.24457447
-0.092146166 0.10705763 0.24489361
-0.091885343 0.10733667 0.24553192
-0.091621906 0.10761571 0.24617021
-0.091316499 0.10784824 0.24670213
-0.090930589 0.10798776 0.24702127
-0.090543382 0.10812728 0.24734043
-0.090154871 0.1082668 0.24765958
-0.089726545 0.10835981 0.24787234
-0.089373939 0.10854583 0.24829787
-0.089057669 0.10877836 0.24882978
-0.088777095 0.1090574 0.24946809
-0.088569187 0.10942946 0.25031915
-0.08839523 0.10984801 0.25127658
-0.088217378 0.11026657 0.25223404
-0.087924637 0.11054561 0.25287235
-0.087592527 0.11077815 0.25340426
-0.087258242 0.11101067 0.25393617
-0.086994454 0.11133622 0.25468084
-0.086691521 0.11161526 0.25531915
-0.086350068 0.11184779 0.25585106
-0.08589939 0.11194079 0.25606382
-0.085447848 0.11203382 0.25627661
-0.08496017 0.11208031 0.25638297
-0.084472068 0.11212683 0.25648937
-0.083983526 0.11217333 0.25659573
-0.08359836 0.11235936 0.25702128
-0.083348997 0.11273141 0.25787234
-0.083164498 0.11319647 0.25893617
-0.082941703 0.11361504 0.25989363
-0.082580067 0.11384756 0.26042554
-0.082048677 0.11384756 0.26042554
-0.081483983 0.11380105 0.26031914
-0.080985896 0.11384756 0.26042554
-0.080553107 0.11398708 0.26074469
-0.080184311 0.11421961 0.2612766
-0.079005197 0.11561479 0.26446807
-0.078654937 0.11589384 0.26510638
-0.078427456 0.1163589 0.2661702
-0.078257896 0.11691698 0.26744682
-0.077928558 0.11724252 0.26819149
-0.077350624 0.11719602 0.26808509
-0.076651223 0.11696348 0.26755318
-0.076044768 0.11687047 0.26734042
-0.075589404 0.11700999 0.26765957
-0.075192384 0.11724252 0.26819149
-0.07479319 0.11747506 0.2687234
-0.074391834 0.11770759 0.26925531
-0.073959127 0.11789361 0.26968086
-0.073524684 0.11807963 0.27010638
-0.073117241 0.11831217 0.27063829
-0.072679117 0.1184982 0.27106383
-0.072295867 0.11877724 0.27170214
-0.071966186 0.11914929 0.27255321
-0.071633026 0.11952133 0.27340424
-0.071268745 0.11984688 0.27414894
-0.070873991 0.12012593 0.27478725
-0.070531063 0.12049798 0.27563831
-0.070157662 0.12082352 0.27638298
-0.069754437 0.12110256 0.27702129
-0.069215752 0.12114906 0.27712765
-0.068650283 0.12114906 0.27712765
-0.06811095 0.12119557 0.27723405
-0.067700781 0.12147461 0.27787235
-0.067313708 0.12180015 0.27861702
-0.066949077 0.1221722 0.27946809
-0.066555709 0.12249774 0.28021276
-0.066159301 0.12282329 0.28095746
-0.065784685 0.12319534 0.28180853
-0.065431215 0.12361389 0.28276595
-0.065025032 0.12393943 0.28351063
-0.064591639 0.12421848 0.28414893
-0.064155638 0.12449752 0.28478724
-0.063693278 0.12473005 0.28531915
-0.063228749 0.12496258 0.28585106
-0.062692106 0.12505558 0.28606382
-0.062131502 0.1251021 0.28617021
-0.061593343 0.12519512 0.28638297
-0.061122302 0.12542763 0.28691489
-0.060738876 0.12584621 0.28787234
-0.060418226 0.12640427 0.28914893
-0.060114384 0.12700886 0.2905319
-0.059761304 0.12752043 0.29170212
-0.059295565 0.12779947 0.29234043
-0.058741774 0.12789248 0.29255319
-0.058187116 0.12798549 0.29276595
-0.057652518 0.12812501 0.2930851
-0.057137325 0.12831104 0.29351065
-0.056599908 0.12845056 0.2938298
-0.056061178 0.12859008 0.29414892
-0.055541214 0.1287761 0.29457447
-0.055098873 0.12914816 0.29542553
-0.054672685 0.12956671 0.29638299
-0.054242585 0.12998527 0.29734042
-0.053789392 0.13035731 0.29819149
-0.053256836 0.13054335 0.29861704
-0.052703779 0.13068286 0.29893616
-0.05214943 0.13082238 0.29925531
-0.051630415 0.13105491 0.29978722
-0.051127341 0.13133395 0.30042553
-0.050621659 0.13161299 0.30106384
-0.050131038 0.13193853 0.30180851
-0.049654834 0.13231058 0.30265957
-0.049175158 0.13268264 0.30351064
-0.048726048 0.1331477 0.30457446
-0.048255794 0.13356626 0.30553192
-0.047765046 0.13393831 0.30638298
-0.047205351 0.13412432 0.3068085
-0.046611626 0.13421735 0.30702129
-0.046017025 0.13431036 0.30723405
-0.045484427 0.1345894 0.30787235
-0.044980217 0.13496144 0.30872339
-0.044441976 0.13524048 0.3093617
-0.043931257 0.13561253 0.31021276
-0.043446764 0.1360776 0.31127658
-0.043031089 0.1367752 0.31287235
-0.042594481 0.13742627 0.31436169
-0.042080816 0.13784485 0.31531915
-0.041493334 0.13803086 0.31574467
-0.040890358 0.13817038 0.31606382
-0.040299628 0.13835642 0.31648937
-0.039747145 0.13868195 0.31723404
-0.039191619 0.13900749 0.31797871
-0.038645953 0.13937955 0.31882977
0.17834355 0.13914701 0.31829786
0.17881355 0.13900749 0.31797871
0.17928226 0.13886799 0.31765959
0.17987017 0.13882147 0.31755319
0.18076003 0.13900749 0.31797871
0.18171233 0.13924004 0.31851065
0.18254495 0.13937955 0.31882977
0.18313439 0.13933305 0.31872341
0.18347803 0.13910052 0.3181915
0.18381949 0.13886799 0.31765959
0.18422054 0.13868195 0.31723404
-0.12701429 0.08779332 0.19989362
-0.1266738 0.087840043 0.2
-0.12633286 0.087886766 0.20010638
-0.1261254 0.088026941 0.20042554
-0.12591662 0.088167101 0.20074467
-0.12583956 0.088400729 0.2012766
-0.12569404 0.088587619 0.20170213
-0.12554678 0.088774517 0.20212767
-0.12539779 0.088961408 0.2025532
-0.12524706 0.089148305 0.20297873
-0.12509459 0.089335196 0.20340426
-0.12480997 0.089428641 0.20361702
-0.12452447 0.089522086 0.20382978
-0.12417334 0.089568816 0.20393617
-0.12382178 0.089615531 0.20404255
-0.12353411 0.089708976 0.20425531
-0.12324559 0.089802429 0.20446809
-0.123084 0.089989319 0.20489362
-0.12298437 0.09022294 0.20542553
-0.12288257 0.090456553 0.20595744
-0.12258884 0.090550005 0.20617022
-0.12210511 0.090503283 0.20606384
-0.12162182 0.090456553 0.20595744
-0.12126418 0.090503283 0.20606384
-0.12103087 0.090643451 0.20638297
-0.12079626 0.090783618 0.20670213
-0.1204984 0.090877064 0.20691489
-0.12019967 0.090970516 0.20712766
-0.11996159 0.091110684 0.20744681
-0.1197222 0.091250852 0.20776595
-0.11948152 0.091391027 0.2080851
-0.11917867 0.091484472 0.20829788
-0.11881429 0.091531195 0.20840426
-0.11863078 0.091718093 0.20882979
-0.11850575 0.091951706 0.2093617
-0.11849856 0.092278771 0.21010639
-0.11848831 0.092605829 0.21085106
-0.11835591 0.09283945 0.21138299
-0.11804328 0.092932895 0.21159574
-0.11767066 0.092979617 0.21170212
-0.1172976 0.093026347 0.21180852
-0.11692411 0.09307307 0.2119149
-0.11655018 0.093119793 0.21202128
-0.11635061 0.093306683 0.21244681
-0.11614931 0.093493581 0.21287234
-0.11594626 0.093680471 0.21329787
-0.11568387 0.093820646 0.21361703
-0.11536278 0.093914092 0.21382979
-0.11504082 0.094007537 0.21404256
-0.11466103 0.094054259 0.21414894
-0.11428081 0.094100982 0.21425532
-0.11401321 0.094241157 0.21457447
-0.11374431 0.094381325 0.21489362
-0.11353019 0.094568215 0.21531914
-0.11337022 0.094801836 0.21585107
-0.11320806 0.095035449 0.21638298
-0.11298831 0.095222346 0.21680851
-0.11265636 0.095315792 0.21702127
-0.11226854 0.095362522 0.21712767
-0.11188029 0.095409237 0.21723405
-0.11165532 0.095596135 0.21765958
-0.11142862 0.095783025 0.21808511
-0.11125431 0.096016645 0.21861702
-0.11097 0.096156813 0.21893618
-0.11068437 0.096296981 0.21925531
-0.11045094 0.096483879 0.21968085
-0.11026905 0.096717499 0.22021277
-0.11019108 0.097044557 0.22095744
-0.11016291 0.097418346 0.22180851
-0.11007865 0.097745411 0.22255319
-0.10988654 0.097979024 0.22308511
-0.10948353 0.098025747 0.22319148
-0.10908008 0.098072477 0.22329788
-0.10862446 0.098072477 0.22329788
-0.10832342 0.098212644 0.22361702
-0.10812372 0.098446257 0.22414893
-0.10797295 0.0987266 0.22478724
-0.1077178 0.098913498 0.22521277
-0.10741027 0.099053666 0.22553192
-0.10705097 0.099147111 0.22574468
-0.10669081 0.099240564 0.22595745
-0.10642981 0.099427454 0.22638299
-0.10616706 0.099614345 0.2268085
-0.10585301 0.09975452 0.22712766
-0.10553765 0.099894688 0.22744681
-0.1051227 0.09994141 0.22755319
-0.10475624 0.10003486 0.22776596
-0.10448634 0.10022175 0.22819149
-0.10431169 0.10050209 0.22882979
-0.10408615 0.10073571 0.2293617
-0.10385845 0.10096932 0.22989361
-0.10358074 0.10115622 0.23031914
-0.10330128 0.10134311 0.23074467
-0.10297269 0.10148329 0.23106383
-0.10273717 0.1017169 0.23159574
-0.10254645 0.10199724 0.23223405
-0.10235313 0.10227758 0.23287234
-0.10211067 0.1025112 0.23340425
-0.10181971 0.10269809 0.23382978
-0.10152701 0.10288499 0.23425531
-0.10118669 0.10302516 0.23457447
-0.10084508 0.10316533 0.23489362
-0.10050215 0.1033055 0.23521277
-0.10006744 0.10335223 0.23531915
-0.099677324 0.10344566 0.23553191
-0.099241532 0.10349239 0.23563829
-0.098760717 0.10349239 0.23563829
-0.098457389 0.10367928 0.23606382
-0.098284781 0.10400635 0.23680851
-0.098284878 0.10452031 0.23797873
-0.098280191 0.10503426 0.23914893
-0.098140232 0.10540805 0.23999999
-0.097780377 0.10554823 0.24031915
-0.097376153 0.10564167 0.24053192
-0.096971057 0.10573512 0.24074468
-0.09660773 0.10587529 0.24106383
-0.096243091 0.10601545 0.24138297
-0.095792763 0.10606218 0.24148937
-0.095383972 0.10615563 0.24170212
-0.095016085 0.1062958 0.24202128
-0.09472999 0.10652941 0.24255319
-0.094524384 0.10685648 0.24329787
-0.094233513 0.10709009 0.24382979
-0.093858682 0.10723027 0.24414894
-0.093360499 0.10723027 0.24414894
-0.092862323 0.10723027 0.24414894
-0.092404388 0.10727699 0.24425532
-0.091946021 0.10732371 0.2443617
-0.091566846 0.10746388 0.24468085
-0.091225967 0.10765078 0.24510638
-0.090883344 0.10783767 0.24553192
-0.090538986 0.10802457 0.24595745
-0.090192892 0.10821146 0.24638298
-0.089806333 0.10835163 0.24670213
-0.089418471 0.1084918 0.24702127
-0.089029312 0.10863197 0.24734043
-0.088676922 0.10881887 0.24776596
-0.088398509 0.1090992 0.24840425
-0.088192776 0.10947299 0.24925531
-0.088020995 0.1098935 0.25021276
-0.087845311 0.11031401 0.25117022
-0.087628722 0.1106878 0.25202128
-0.087371886 0.11101487 0.25276595
-0.08711201 0.11134192 0.25351062
-0.086849108 0.111669 0.25425532
-0.086510912 0.11190261 0.25478724
-0.086134642 0.1120895 0.25521275
-0.085685275 0.11218295 0.25542554
-0.085235022 0.1122764 0.2556383
-0.084783904 0.11236984 0.25585106
-0.08429689 0.11241657 0.25595745
-0.083809428 0.11246329 0.25606382
-0.08339075 0.11260346 0.25638297
-0.083073922 0.1128838 0.25702128
-0.08285699 0.11330432 0.25797874
-0.082602188 0.11367809 0.25882977
-0.082276464 0.11395843 0.25946808
-0.081847578 0.11409861 0.25978723
-0.081350796 0.11414534 0.25989363
-0.080853567 0.11419205 0.25999999
-0.080388784 0.11428551 0.26021278
-0.078655623 0.11564049 0.26329789
-0.078276187 0.1158741 0.2638298
-0.078051314 0.11634134 0.26489362
-0.077884346 0.11690201 0.2661702
-0.076529317 0.11732253 0.26712766
-0.075923733 0.11722908 0.2669149
-0.075439185 0.11732253 0.26712766
-0.075043254 0.11755615 0.26765957
-0.074645147 0.11778976 0.26819149
-0.074244872 0.11802337 0.2687234
-0.073813252 0.11821028 0.26914895
-0.073379897 0.11839716 0.26957446
-0.072887316 0.11849061 0.26978722
-0.072393879 0.11858407 0.27000001
-0.071927875 0.11872423 0.27031916
-0.071544833 0.11900457 0.27095744
-0.071242809 0.11942508 0.2719149
-0.07096453 0.11989231 0.27297872
-0.070627034 0.1202661 0.27382979
-0.070286065 0.12063989 0.27468085
-0.069914624 0.12096695 0.27542552
-0.069513351 0.12124729 0.27606383
-0.068976626 0.12129402 0.27617022
-0.068386756 0.12124729 0.27606383
-0.067849591 0.12129402 0.27617022
-0.067389749 0.12148091 0.27659574
-0.067030981 0.1218547 0.27744681
-0.066668741 0.12222849 0.27829787
-0.066277757 0.12255555 0.27904254
-0.065858684 0.12283589 0.27968085
-0.065437011 0.12311623 0.28031915
-0.065061964 0.12349002 0.28117022
-0.064683445 0.12386381 0.28202128
-0.064277261 0.12419087 0.28276595
-0.063868046 0.12451793 0.28351063
-0.063455798 0.124845 0.28425533
-0.062993437 0.12507862 0.28478724
-0.062482283 0.12521879 0.28510639
-0.061877433 0.12517206 0.285
-0.061318781 0.12521879 0.28510639
-0.060805023 0.12535895 0.28542554
-0.06042463 0.12577946 0.28638297
-0.060129251 0.12638687 0.28776595
-0.059850242 0.127041 0.28925532
-0.05949977 0.12755495 0.29042554
-0.059036631 0.12783529 0.29106382
-0.058485448 0.12792875 0.2912766
-0.057933394 0.12802219 0.29148936
-0.057443254 0.12825581 0.29202127
-0.056971651 0.12853615 0.29265958
-0.056476951 0.12876977 0.29319149
-0.055959802 0.12895666 0.29361701
-0.055460975 0.12919027 0.29414892
-0.054979824 0.12947062 0.29478723
-0.054554939 0.12989113 0.29574469
-0.05408733 0.13021819 0.29648936
-0.053578302 0.13045181 0.29702127
-0.053029157 0.13059197 0.29734042
-0.052441202 0.1306387 0.29744682
-0.051889889 0.13077888 0.29776597
-0.051355593 0.13096577 0.29819149
-0.050837666 0.13119939 0.2987234
-0.050335456 0.13147973 0.29936171
-0.049848311 0.13180679 0.30010638
-0.049393035 0.1322273 0.30106384
-0.048916616 0.1326011 0.3019149
-0.048470762 0.13306832 0.30297872
-0.048003763 0.13348883 0.30393618
-0.047499686 0.1338159 0.30468085
-0.046943463 0.13400279 0.30510637
-0.046369359 0.13414295 0.30542552
-0.045778014 0.1342364 0.30563828
-0.045248672 0.13451675 0.30627659
-0.044747721 0.13489053 0.30712765
-0.044228021 0.13521761 0.30787235
-0.043705273 0.13554466 0.30861703
-0.043194342 0.13591845 0.30946809
-0.042738456 0.13647912 0.31074467
-0.042262953 0.1369931 0.31191489
-0.041740078 0.13736688 0.31276596
-0.041171789 0.1376005 0.31329787
-0.040601332 0.1378341 0.31382978
-0.040055797 0.13816118 0.31457448
-0.039520551 0.13853496 0.31542554
-0.03896872 0.13886203 0.31617022
-0.038426742 0.13923581 0.31702128
-0.037868615 0.13956288 0.31776595
-0.03731991 0.13993666 0.31861702
0.17816472 0.13965632 0.31797871
0.17857426 0.13946943 0.31755319
0.17898205 0.13928252 0.31712765
0.17962913 0.13928252 0.31712765
0.18057862 0.13951616 0.31765959
0.18159093 0.1397965 0.31829786
0.18248405 0.13998339 0.31872341
0.18307327 0.13993666 0.31861702
0.18347803 0.13974978 0.3181915
0.18375792 0.13946943 0.31755319
0.18422054 0.13932925 0.31723404
-0.12667631 0.087966494 0.1993617
-0.1263369 0.08801344 0.19946809
-0.12606421 0.088107318 0.19968085
-0.12585761 0.088248141 0.2
-0.12564971 0.088388965 0.20031916
-0.12557352 0.088623665 0.20085107
-0.12542887 0.088811427 0.2012766
-0.12521639 0.088952243 0.20159574
-0.12500262 0.089093067 0.20191489
-0.12478755 0.08923389 0.20223404
-0.12463661 0.089421652 0.20265958
-0.12441872 0.089562476 0.20297873
-0.12406953 0.089609414 0.20308511
-0.12371992 0.089656353 0.20319149
-0.12343443 0.089750238 0.20340426
-0.12314807 0.089844115 0.20361702
-0.1229891 0.090031877 0.20404255
-0.12282838 0.090219639 0.20446809
-0.12272961 0.09045434 0.205
-0.12250174 0.090595163 0.20531915
-0.1222093 0.090689041 0.20553191
-0.12166385 0.090595163 0.20531915
-0.12118208 0.090548225 0.20521277
-0.12082595 0.090595163 0.20531915
-0.12059417 0.090735987 0.2056383
-0.12036107 0.090876803 0.20595744
-0.12006474 0.090970688 0.20617022
-0.11976752 0.091064565 0.20638297
-0.11953096 0.091205388 0.20670213
-0.11929309 0.091346212 0.20702128
-0.11905392 0.091487028 0.20734042
-0.11875259 0.091580912 0.20755319
-0.11851104 0.091721736 0.20787235
-0.11838905 0.091956437 0.20840426
-0.1183251 0.092238076 0.20904255
-0.11831856 0.092566662 0.20978723
-0.11824918 0.092848301 0.21042553
-0.11805808 0.093036063 0.21085106
-0.11774654 0.093129948 0.21106383
-0.11731587 0.093129948 0.21106383
-0.11694412 0.093176886 0.21117021
-0.11657193 0.093223825 0.21127659
-0.11631627 0.093364649 0.21159574
-0.11611756 0.093552411 0.21202128
-0.11597516 0.093787111 0.21255319
-0.11577277 0.093974873 0.21297872
-0.11551103 0.094115697 0.21329787
-0.1151332 0.094162636 0.21340425
-0.11475493 0.094209574 0.21351063
-0.11437623 0.09425652 0.21361703
-0.11405384 0.094350398 0.21382979
-0.11373058 0.094444282 0.21404256
-0.11346275 0.094585106 0.2143617
-0.11319364 0.094725929 0.21468085
-0.11297909 0.094913691 0.21510638
-0.1127628 0.095101453 0.21553192
-0.11248934 0.095242277 0.21585107
-0.11215935 0.095336154 0.21606383
-0.11177348 0.095383093 0.21617021
-0.11149676 0.095523916 0.21648936
-0.11138246 0.095805563 0.21712767
-0.11126556 0.096087202 0.21776596
-0.1110919 0.096321903 0.21829787
-0.11075432 0.096415788 0.21851064
-0.11041585 0.096509665 0.2187234
-0.11013002 0.096650489 0.21904255
-0.10989615 0.096838251 0.21946809
-0.10981971 0.097166836 0.22021277
-0.10974022 0.097495414 0.22095744
-0.10960508 0.097777061 0.22159575
-0.10936253 0.097964823 0.22202128
-0.10901387 0.098058701 0.22223404
-0.10861237 0.098105639 0.22234042
-0.10815869 0.098105639 0.22234042
-0.10780808 0.098199524 0.22255319
-0.10755924 0.098387286 0.22297873
-0.10741086 0.098668925 0.22361702
-0.10720898 0.098903626 0.22414893
-0.10695427 0.099091388 0.22457446
-0.10669783 0.09927915 0.22499999
-0.10633919 0.099373035 0.22521277
-0.10597967 0.099466912 0.22542553
-0.1056691 0.099607736 0.22574468
-0.10540679 0.099795498 0.22617021
-0.10514275 0.09998326 0.22659574
-0.10482783 0.10012408 0.2269149
-0.1045116 0.1002649 0.22723404
-0.10419407 0.10040572 0.22755319
-0.10397223 0.10064042 0.2280851
