# .PCD v0.7 - Point Cloud Data file format
VERSION 0.7
FIELDS x y z
SIZE 4 4 4
TYPE F F F
COUNT 1 1 1
WIDTH 1430
HEIGHT 1
VIEWPOINT 0 0 0 1 0 0 0
POINTS 1430
DATA ascii
0.0093656927 0.13490614 0.31446809
0.01001074 0.13495179 0.31457448
0.010645413 0.1348605 0.31436169
0.011275399 0.13472359 0.31404254
0.011912156 0.13467796 0.31393617
0.012561239 0.13476923 0.31414893
0.013215662 0.13490614 0.31446809
0.013857324 0.13490614 0.31446809
0.014474461 0.13467796 0.31393617
0.015063818 0.13422158 0.31287235
0.015654171 0.13381083 0.31191489
0.016257286 0.13353699 0.31127658
0.016875116 0.1334001 0.31095746
0.017497633 0.13330881 0.31074467
0.018119283 0.13321753 0.31053191
0.018765761 0.13330881 0.31074467
0.01941975 0.13344572 0.31106383
0.020068182 0.13353699 0.31127658
0.02068918 0.13344572 0.31106383
0.021294726 0.13326317 0.31063831
0.021891024 0.13303499 0.3101064
0.022531511 0.13308062 0.31021276
0.023188323 0.13321753 0.31053191
0.023854598 0.1334001 0.31095746
0.024480717 0.13335446 0.31085107
0.025063427 0.13308062 0.31021276
0.025634721 0.13276115 0.30946809
0.026202973 0.13244168 0.30872339
0.026814422 0.13235041 0.30851063
0.027453391 0.13239606 0.30861703
0.028102474 0.13248733 0.30882978
0.028732631 0.13248733 0.30882978
0.029332444 0.13235041 0.30851063
0.029951619 0.13230477 0.30840427
0.030591454 0.13235041 0.30851063
0.031242492 0.13244168 0.30872339
0.031894401 0.13253297 0.30893618
0.032524772 0.13253297 0.30893618
0.033109479 0.13235041 0.30851063
0.033657547 0.13203095 0.30776596
0.034190722 0.13166584 0.3069149
0.034780767 0.13152893 0.30659574
0.035418652 0.13157457 0.30670214
0.036069471 0.13166584 0.3069149
0.036708441 0.13171148 0.30702129
0.037334908 0.13171148 0.30702129
0.037987679 0.13180275 0.30723405
0.038694806 0.13207659 0.30787235
0.039404534 0.13235041 0.30851063
0.040047847 0.13239606 0.30861703
0.040593434 0.13212222 0.30797872
0.041079465 0.13166584 0.3069149
0.041561157 0.13120946 0.30585107
0.04211187 0.13098128 0.30531916
0.042734865 0.13098128 0.30531916
0.043418285 0.13116382 0.30574468
0.044088122 0.13130073 0.30606383
0.044743713 0.131392 0.30627659
0.045352906 0.13134637 0.30617023
0.045945682 0.13125509 0.30595744
0.046537593 0.13116382 0.30574468
0.047112226 0.13102691 0.30542552
0.047652304 0.13079871 0.30489361
0.04819021 0.13057053 0.3043617
0.048760068 0.1304336 0.30404255
0.049397733 0.13047925 0.30414894
0.050070826 0.13061617 0.3044681
0.050745219 0.13075309 0.30478725
0.051385053 0.13079871 0.30489361
0.05200718 0.13079871 0.30489361
0.052555855 0.13061617 0.3044681
0.053047046 0.13029669 0.30372339
0.053572796 0.13006851 0.30319148
0.054191448 0.13006851 0.30319148
0.054887027 0.13025106 0.30361703
0.055623237 0.13052489 0.30425531
0.056342393 0.13075309 0.30478725
0.056964301 0.13075309 0.30478725
0.05752591 0.13061617 0.3044681
0.057984632 0.13025106 0.30361703
0.058439877 0.12988596 0.30276597
0.058933154 0.12961213 0.30212766
0.059465766 0.12942958 0.30170214
0.060039002 0.12933829 0.30148935
0.060568575 0.12915576 0.30106384
0.06107479 0.12892756 0.30053192
0.061600666 0.128745 0.30010638
0.06223508 0.12879065 0.30021277
0.062981278 0.12906447 0.30085108
0.063752569 0.12938394 0.30159575
0.06445878 0.12956649 0.30202127
0.065029204 0.12947521 0.30180851
0.065575615 0.12933829 0.30148935
0.066097371 0.12915576 0.30106384
0.066688105 0.12911011 0.30095744
0.067302197 0.12911011 0.30095744
0.067892291 0.12906447 0.30085108
0.068409264 0.12888192 0.30042553
0.068851188 0.12856245 0.29968086
0.069290064 0.12824298 0.29893616
0.069825411 0.12810607 0.29861704
0.070434734 0.12810607 0.29861704
0.071119972 0.12824298 0.29893616
0.071832053 0.12842554 0.29936171
0.072571605 0.12865373 0.29989362
0.073287368 0.12883627 0.30031914
0.073978692 0.12897319 0.30063829
0.074618533 0.12901883 0.30074468
0.075258806 0.12906447 0.30085108
0.075765364 0.12888192 0.30042553
0.076162003 0.12851681 0.29957446
0.076446123 0.12796916 0.29829788
0.076807462 0.12755841 0.29734042
0.077303387 0.12737587 0.29691491
0.077937141 0.1274215 0.29702127
0.078655735 0.12760405 0.29744682
0.079347715 0.12774098 0.29776597
0.079983853 0.12778661 0.29787233
0.080505304 0.12764968 0.29755318
0.080996454 0.12746714 0.29712766
0.081427433 0.1271933 0.29648936
0.081944108 0.12705639 0.2961702
0.082518786 0.12701076 0.29606384
0.083212502 0.12714767 0.29638299
0.083967686 0.12737587 0.29691491
0.084725037 0.12760405 0.29744682
0.085331969 0.12760405 0.29744682
0.085785218 0.12737587 0.29691491
0.086205341 0.12710203 0.2962766
0.086747542 0.12701076 0.29606384
0.08735165 0.12701076 0.29606384
0.088018969 0.12710203 0.2962766
0.088655338 0.12714767 0.29638299
0.089260094 0.12714767 0.29638299
0.089864857 0.12714767 0.29638299
0.090437137 0.12710203 0.2962766
0.090976305 0.12701076 0.29606384
0.091481686 0.12687385 0.29574469
0.092018902 0.12678257 0.29553193
0.092521898 0.12664565 0.29521278
0.093057148 0.12655437 0.29499999
0.093557768 0.12641747 0.29468086
0.094057076 0.12628055 0.29436171
0.09455508 0.12614363 0.29404256
0.09505178 0.12600672 0.2937234
0.09558183 0.12591545 0.29351065
0.096145861 0.12586981 0.29340425
0.09677963 0.12591545 0.29351065
0.09748441 0.12605236 0.2938298
0.098190486 0.12618926 0.29414892
0.098862156 0.12628055 0.29436171
0.099498726 0.12632619 0.29446808
0.10009958 0.12632619 0.29446808
0.10066406 0.12628055 0.29436171
0.10119149 0.12618926 0.29414892
0.10182852 0.1262349 0.29425532
0.10246596 0.12628055 0.29436171
0.1029921 0.12618926 0.29414892
0.10333004 0.12586981 0.29340425
0.10362726 0.1255047 0.29255319
0.10395891 0.12518524 0.29180852
0.10440186 0.12500268 0.29138297
0.10503476 0.12504832 0.29148936
0.10586084 0.12532215 0.29212767
0.10672829 0.12564161 0.29287234
0.1075598 0.12591545 0.29351065
0.10827631 0.12605236 0.2938298
0.10887586 0.12605236 0.2938298
0.10943577 0.12600672 0.2937234
0.10995539 0.12591545 0.29351065
0.11043409 0.12577853 0.29319149
0.11095176 0.12568726 0.29297873
0.11154957 0.12568726 0.29297873
0.1121881 0.12573288 0.2930851
0.11286802 0.12582417 0.29329789
0.11346648 0.12582417 0.29329789
0.11394083 0.12568726 0.29297873
0.11433069 0.12545907 0.29244682
0.11476018 0.12527651 0.29202127
0.11522997 0.12513959 0.29170212
0.11578295 0.12509397 0.29159576
0.11625056 0.12495705 0.2912766
0.11671687 0.12482013 0.29095745
0.11726766 0.12477449 0.29085106
0.11790425 0.12482013 0.29095745
0.11849794 0.12482013 0.29095745
0.11909163 0.12482013 0.29095745
0.11972907 0.12486576 0.29106382
0.12036696 0.12491141 0.29117021
0.12100528 0.12495705 0.2912766
0.12146638 0.12482013 0.29095745
0.12179229 0.1245463 0.29031914
0.12207077 0.12422684 0.28957447
0.12243631 0.12399865 0.28904256
0.12298081 0.12395301 0.28893617
0.12361588 0.12399865 0.28904256
0.12425137 0.12404428 0.28914893
0.12484137 0.12404428 0.28914893
0.12538522 0.12399865 0.28904256
0.12602137 0.12404428 0.28914893
0.12670454 0.12413556 0.28936172
0.12734176 0.1241812 0.28946808
0.12793241 0.1241812 0.28946808
0.1285703 0.12422684 0.28957447
0.12925607 0.12431811 0.28978723
0.12989505 0.12436375 0.28989363
0.1303429 0.12422684 0.28957447
0.13059704 0.12390736 0.28882977
0.13089649 0.12363354 0.2881915
0.13133892 0.12349663 0.28787234
0.13202383 0.1235879 0.2880851
0.13280754 0.12377046 0.28851065
0.13364217 0.12399865 0.28904256
0.13428135 0.12404428 0.28914893
0.13477211 0.12395301 0.28893617
0.13511248 0.12372482 0.28840426
0.13550073 0.12354226 0.28797871
0.13603808 0.12349663 0.28787234
0.13667595 0.12354226 0.28797871
0.13731427 0.1235879 0.2880851
0.13800395 0.12367918 0.28829786
0.13859221 0.12367918 0.28829786
0.13923183 0.12372482 0.28840426
0.13982031 0.12372482 0.28840426
0.1404606 0.12377046 0.28851065
0.14104928 0.12377046 0.28851065
0.14153352 0.12367918 0.28829786
0.14191201 0.12349663 0.28787234
0.14218344 0.1232228 0.28723404
0.14250514 0.12299461 0.28670213
0.14293087 0.12285769 0.28638297
0.14356853 0.12290333 0.28648937
0.14420663 0.12294896 0.28659573
0.14484517 0.12299461 0.28670213
0.14543018 0.12299461 0.28670213
0.14590682 0.12290333 0.28648937
0.14643699 0.12285769 0.28638297
0.14696674 0.12281206 0.28627661
0.14755088 0.12281206 0.28627661
0.14807996 0.12276642 0.28617021
0.14833228 0.12249258 0.28553191
0.14841558 0.12208185 0.28457448
0.14843923 0.12162546 0.28351063
0.14868224 0.12135164 0.28287235
0.14920329 0.12130599 0.28276595
0.14994931 0.12144291 0.28308511
0.15058352 0.12148856 0.2831915
0.15116136 0.12148856 0.2831915
0.15162519 0.12139727 0.28297871
0.15220259 0.12139727 0.28297871
0.15283744 0.12144291 0.28308511
0.15341507 0.12144291 0.28308511
0.1539927 0.12144291 0.28308511
0.15445416 0.12135164 0.28287235
0.15491472 0.12126035 0.28265956
0.15549149 0.12126035 0.28265956
0.15624446 0.12139727 0.28297871
0.15711664 0.12162546 0.28351063
0.15781349 0.12171675 0.28372341
0.15833302 0.1216711 0.28361702
0.15867332 0.12148856 0.2831915
0.15907168 0.12135164 0.28287235
0.15946876 0.12121473 0.2825532
0.15986452 0.12107781 0.28223404
0.16013803 0.12084962 0.28170213
0.16047005 0.12066706 0.28127658
0.16092218 0.12057579 0.28106382
0.16149569 0.12057579 0.28106382
0.16219187 0.12066706 0.28127658
0.16288893 0.12075835 0.28148937
0.16352507 0.12080397 0.28159574
0.16409966 0.12080397 0.28159574
0.16461204 0.12075835 0.28148937
0.16506155 0.12066706 0.28127658
0.16544755 0.12053016 0.28095746
0.1658951 0.12043887 0.28074467
0.1663418 0.1203476 0.28053191
0.16678762 0.12025633 0.28031915
0.16723257 0.12016505 0.2801064
0.16767666 0.12007377 0.27989361
0.16818383 0.12002814 0.27978724
0.16869055 0.1199825 0.27968085
0.16919684 0.11993685 0.27957445
0.16970271 0.11989122 0.27946809
0.17020814 0.11984558 0.2793617
0.17077817 0.11984558 0.2793617
0.17128295 0.11979995 0.27925533
0.17172182 0.11970866 0.27904254
0.17202847 0.11952612 0.27861702
0.17233336 0.11934356 0.27819148
0.17270266 0.11920665 0.27787235
0.1732033 0.11916101 0.27776596
0.17390317 0.11925228 0.27797872
0.17460391 0.11934356 0.27819148
0.17537253 0.11948047 0.27851063
0.17600803 0.11952612 0.27861702
0.1765091 0.11948047 0.27851063
0.17667158 0.11920665 0.27787235
0.17669572 0.11884154 0.27702129
0.17678446 0.11852207 0.27627659
0.17721161 0.1184308 0.27606383
0.17777491 0.1184308 0.27606383
0.17840694 0.11847644 0.27617022
-0.036055736 0.13747372 0.31893617
-0.035357721 0.13729031 0.31851065
-0.034673031 0.13715275 0.3181915
-0.034012396 0.13710688 0.3180851
-0.033396833 0.13724445 0.31840426
-0.032790899 0.13742787 0.31882977
-0.030178584 0.13738202 0.31872341
-0.029459247 0.13706101 0.31797871
-0.028752591 0.13678589 0.31734043
-0.028057959 0.13655663 0.31680852
-0.027374702 0.13637319 0.31638297
-0.026693184 0.13618979 0.31595746
-0.026048483 0.13618979 0.31595746
-0.025446551 0.13641906 0.31648937
-0.02485078 0.13669418 0.31712765
-0.024228051 0.13683175 0.3174468
-0.023564506 0.13674004 0.31723404
-0.02287109 0.13646491 0.31659573
-0.022195216 0.13628149 0.31617022
-0.021535579 0.13618979 0.31595746
-0.020897912 0.13623562 0.31606382
-0.020252993 0.13623562 0.31606382
-0.019601477 0.13618979 0.31595746
-0.01894401 0.13609806 0.31574467
-0.018281247 0.1359605 0.31542554
-0.017625734 0.13586879 0.31521276
-0.016971091 0.13577709 0.315
-0.0163118 0.13563952 0.31468084
-0.015659111 0.1355478 0.31446809
-0.015017448 0.1355478 0.31446809
-0.014385513 0.13563952 0.31468084
-0.013748064 0.13568537 0.31478724
-0.013105751 0.13568537 0.31478724
-0.012455015 0.13559367 0.31457448
-0.01180914 0.1355478 0.31446809
-0.011167479 0.1355478 0.31446809
-0.010529378 0.13559367 0.31457448
-0.0098841554 0.1355478 0.31446809
-0.0092393663 0.13550195 0.31436169
-0.0085950131 0.1354561 0.31425533
-0.0079537854 0.1354561 0.31425533
-0.0073100822 0.13541023 0.31414893
-0.0066600386 0.13522683 0.31372342
-0.00600969 0.13499755 0.3131915
-0.0053596874 0.13472241 0.3125532
-0.0047171116 0.13458484 0.31223404
-0.0040800082 0.13458484 0.31223404
-0.0034440784 0.13463071 0.31234044
-0.0028067583 0.13463071 0.31234044
-0.0021679599 0.13453899 0.31212765
-0.0015295085 0.13440143 0.3118085
-0.00089174981 0.13417214 0.31127658
-0.00025633731 0.13403459 0.31095746
0.0003780316 0.13398874 0.31085107
0.0010130056 0.13408044 0.31106383
0.0016488479 0.13417214 0.31127658
0.002284778 0.13421801 0.31138298
0.0029191468 0.13417214 0.31127658
0.0035506524 0.13403459 0.31095746
0.0041794232 0.13385117 0.31053191
0.0048114043 0.1338053 0.31042552
0.005450415 0.13394287 0.31074467
0.0060948944 0.13417214 0.31127658
0.0067392443 0.13435557 0.31170213
0.0073828134 0.13449314 0.31202129
0.0080222161 0.13453899 0.31212765
0.0086650057 0.13463071 0.31234044
0.0093086623 0.13472241 0.3125532
0.0099464171 0.13472241 0.3125532
0.010580568 0.13467656 0.3124468
0.011214286 0.13463071 0.31234044
0.01184757 0.13458484 0.31223404
0.01249318 0.13467656 0.3124468
0.013139659 0.13476826 0.31265956
0.013777629 0.13476826 0.31265956
0.014395982 0.13458484 0.31223404
0.014986986 0.13417214 0.31127658
0.015579423 0.1338053 0.31042552
0.0161795 0.13353018 0.30978724
0.01679429 0.13339262 0.30946809
0.017413771 0.13330092 0.30925533
0.018032379 0.13320918 0.30904254
0.018669395 0.13325505 0.30914894
0.019313486 0.13334675 0.3093617
0.019944727 0.13334675 0.3093617
0.020554744 0.13320918 0.30904254
0.021141579 0.13293406 0.30840427
0.021733319 0.13270479 0.30787235
0.022361523 0.13270479 0.30787235
0.023029445 0.13293406 0.30840427
0.023707697 0.13320918 0.30904254
0.024346668 0.13325505 0.30914894
0.0249345 0.13302578 0.30861703
0.025484912 0.13261308 0.30765957
0.026040448 0.13224623 0.3068085
0.026647987 0.13215452 0.30659574
0.027292512 0.13224623 0.3068085
0.027947586 0.13238379 0.30712765
0.028584169 0.13242966 0.30723405
0.029200954 0.13238379 0.30712765
0.029806975 0.13229209 0.3069149
0.030422674 0.13224623 0.3068085
0.031059474 0.13229209 0.3069149
0.031696707 0.13233796 0.30702129
0.032323174 0.13233796 0.30702129
0.032915391 0.13220039 0.30670214
0.033471398 0.13192526 0.30606383
0.034024805 0.13165012 0.30542552
0.034587674 0.13142084 0.30489361
0.035197515 0.131375 0.30478725
0.03580692 0.13132913 0.30468085
0.03641589 0.13128327 0.30457446
0.037024431 0.13123743 0.3044681
0.037698299 0.13142084 0.30489361
0.038440764 0.13183354 0.30585107
0.03918713 0.13224623 0.3068085
0.039854575 0.13238379 0.30712765
0.040397126 0.13210866 0.30648935
0.040865883 0.13160427 0.30531916
0.041329861 0.13109986 0.30414894
0.041877098 0.13087058 0.30361703
0.042496622 0.13087058 0.30361703
0.043191675 0.13109986 0.30414894
0.043873578 0.13128327 0.30457446
0.044541676 0.13142084 0.30489361
0.045148045 0.131375 0.30478725
0.045722026 0.13123743 0.3044681
0.046294704 0.13109986 0.30414894
0.046866082 0.1309623 0.30382979
0.047436155 0.13082473 0.30351064
0.047988087 0.13064131 0.30308512
0.048572395 0.13054959 0.30287233
0.049207676 0.13059545 0.30297872
0.049878381 0.13073301 0.30329788
0.050550386 0.13087058 0.30361703
0.051187832 0.13091643 0.30372339
0.051789425 0.13087058 0.30361703
0.052298766 0.13059545 0.30297872
0.052786924 0.13027447 0.30223405
0.053272035 0.12995347 0.30148935
0.053887215 0.12995347 0.30148935
0.054560088 0.13009104 0.30180851
0.055253718 0.13027447 0.30223405
0.055909745 0.13036618 0.30244681
0.056487113 0.13027447 0.30223405
0.057043511 0.13013691 0.3019149
0.057578288 0.12995347 0.30148935
0.058090799 0.1297242 0.30095744
0.058642637 0.12958664 0.30063829
0.059214145 0.12949492 0.30042553
0.059763595 0.12935735 0.30010638
0.060290348 0.12917395 0.29968086
0.060728878 0.1288071 0.29882979
0.061207611 0.12853196 0.29819149
0.061816059 0.12853196 0.29819149
0.062558137 0.1288071 0.29882979
0.063302808 0.12908222 0.29946807
0.064004689 0.12926565 0.29989362
0.064616613 0.12926565 0.29989362
0.065182254 0.12917395 0.29968086
0.06574703 0.12908222 0.29946807
0.066334516 0.12903638 0.29936171
0.066921562 0.12899052 0.29925531
0.067508176 0.12894467 0.29914895
0.068021677 0.12876125 0.2987234
0.068484567 0.12848611 0.29808509
0.068969503 0.12825683 0.29755318
0.069526903 0.12816513 0.29734042
0.070158713 0.12821099 0.29744682
0.070866875 0.1283944 0.29787233
0.071551256 0.12853196 0.29819149
0.07223694 0.12866953 0.29851064
0.072872005 0.1287154 0.29861704
0.073481321 0.1287154 0.29861704
0.074117027 0.12876125 0.2987234
0.074779786 0.12885295 0.29893616
0.075362936 0.1288071 0.29882979
0.075810403 0.12853196 0.29819149
0.076146223 0.12807342 0.29712766
0.076450221 0.127569 0.29595745
0.076915622 0.12733974 0.29542553
0.077546343 0.1273856 0.29553193
0.07826189 0.127569 0.29595745
0.07895083 0.12770657 0.2962766
0.079583943 0.12775244 0.29638299
0.080131128 0.12766072 0.2961702
0.080619462 0.1274773 0.29574469
0.081047617 0.12720217 0.29510638
0.081502602 0.1269729 0.29457447
0.08204437 0.12688118 0.29436171
0.082704738 0.1269729 0.29457447
0.083486319 0.12724803 0.29521278
0.084300801 0.127569 0.29595745
0.084935218 0.12761487 0.29606384
0.085447118 0.1274773 0.29574469
0.085864849 0.12720217 0.29510638
0.086373493 0.1270646 0.29478723
0.086974993 0.1270646 0.29478723
0.087608106 0.12711047 0.29489362
0.088241644 0.1271563 0.29499999
0.088875622 0.12720217 0.29510638
0.089510038 0.12724803 0.29521278
0.09014488 0.12729387 0.29531914
0.090649396 0.1271563 0.29499999
0.091086797 0.12692703 0.29446808
0.091522031 0.12669776 0.29393616
0.092021771 0.1265602 0.29361701
0.092587337 0.12651435 0.29351065
0.093118683 0.12642264 0.29329789
0.093649156 0.12633091 0.2930851
0.094178773 0.12623921 0.29287234
0.094638668 0.12605579 0.29244682
0.095131464 0.12591822 0.29212767
0.095692672 0.12587237 0.29202127
0.096288532 0.12587237 0.29202127
0.096954979 0.12596408 0.29223403
0.097622305 0.12605579 0.29244682
0.098254755 0.12610164 0.29255319
0.098887652 0.12614751 0.29265958
0.099412493 0.12605579 0.29244682
0.099936448 0.12596408 0.29223403
0.10042295 0.12582651 0.29191488
0.10109223 0.12591822 0.29212767
0.1017994 0.12605579 0.29244682
0.10247062 0.12614751 0.29265958
0.10295539 0.12600994 0.29234043
0.1033258 0.12573481 0.29170212
0.10357992 0.12532212 0.29074469
0.10398259 0.12509283 0.29021278
0.10457476 0.12509283 0.29021278
0.10535968 0.12532212 0.29074469
0.10626308 0.12568896 0.29159576
0.10709198 0.12596408 0.29223403
0.10776668 0.12605579 0.29244682
0.10828456 0.12596408 0.29223403
0.10872231 0.12578066 0.29180852
0.10915832 0.12559724 0.29138297
0.10963267 0.12545967 0.29106382
0.11022657 0.12545967 0.29106382
0.1109015 0.12555139 0.2912766
0.111618 0.12568896 0.29159576
0.1123358 0.12582651 0.29191488
0.1128903 0.12578066 0.29180852
0.11332022 0.12559724 0.29138297
0.11370683 0.12536795 0.29085106
0.11417488 0.12523039 0.2905319
0.11468366 0.12513869 0.29031914
0.11519156 0.12504698 0.29010639
0.11565614 0.12490941 0.28978723
0.11607675 0.124726 0.28936172
0.11658139 0.12463427 0.28914893
0.1172145 0.12468014 0.28925532
0.11789136 0.12477184 0.28946808
0.11852556 0.12481771 0.28957447
0.11916018 0.12486355 0.28968084
0.11983923 0.12495527 0.28989363
0.12043075 0.12495527 0.28989363
0.12088903 0.12481771 0.28957447
0.12116749 0.12449671 0.28882977
0.12144291 0.12417573 0.2880851
0.12176036 0.12390059 0.2874468
0.12230162 0.12385475 0.28734043
0.12293341 0.12390059 0.2874468
0.12351994 0.12390059 0.2874468
0.12406054 0.12385475 0.28734043
0.12455455 0.12376304 0.28712767
0.12523316 0.12385475 0.28734043
0.12595922 0.12399232 0.28765959
0.12673336 0.12417573 0.2880851
0.12741522 0.12426744 0.28829786
0.12805073 0.12431329 0.28840426
0.12863921 0.12431329 0.28840426
0.12913236 0.12422159 0.2881915
0.12948097 0.12399232 0.28765959
0.12973121 0.12367132 0.28691489
0.13002674 0.1233962 0.28627661
0.13056235 0.12335034 0.28617021
0.13124377 0.12344205 0.28638297
0.13202401 0.12362547 0.28680852
0.13280597 0.12380888 0.28723404
0.13354029 0.12394645 0.28755319
0.13417666 0.12399232 0.28765959
0.13466392 0.12390059 0.2874468
0.13510029 0.12376304 0.28712767
0.13558561 0.12367132 0.28691489
0.13607007 0.12357961 0.28670213
0.13660437 0.12353376 0.28659573
0.13718916 0.12353376 0.28659573
0.13787624 0.12362547 0.28680852
0.13856418 0.12371718 0.28702128
0.13925298 0.12380888 0.28723404
0.13983907 0.12380888 0.28723404
0.14037317 0.12376304 0.28712767
0.14075013 0.12357961 0.28670213
0.14102046 0.12330448 0.28606382
0.14123555 0.12298349 0.28531915
0.14155336 0.12275422 0.28478724
0.14202826 0.12266251 0.28457448
0.14266223 0.12270837 0.28468084
0.14340369 0.12284593 0.285
0.14414647 0.12298349 0.28531915
0.14483657 0.1230752 0.28553191
0.14536503 0.12302936 0.28542554
0.14578423 0.12289179 0.28510639
0.14625674 0.12280007 0.2848936
0.1467284 0.12270837 0.28468084
0.14714414 0.1225708 0.28436169
0.14750332 0.12238738 0.28393617
0.14763881 0.12202054 0.28308511
0.14771514 0.12160784 0.28212765
0.14801122 0.12137856 0.28159574
0.14852969 0.12133271 0.28148937
0.14921676 0.12142442 0.28170213
0.14984813 0.12147028 0.28180853
0.15047993 0.12151613 0.28191489
0.15111218 0.12156199 0.28202128
0.15168764 0.12156199 0.28202128
0.15226309 0.12156199 0.28202128
0.15278089 0.12151613 0.28191489
0.15324038 0.12142442 0.28170213
0.15369903 0.12133271 0.28148937
0.15421508 0.12128685 0.28138298
0.15478922 0.12128685 0.28138298
0.15548086 0.12137856 0.28159574
0.15629128 0.12156199 0.28202128
0.15692589 0.12160784 0.28212765
0.15744218 0.12156199 0.28202128
0.15783882 0.12142442 0.28170213
0.15823415 0.12128685 0.28138298
0.15862818 0.12114929 0.28106382
0.1590209 0.12101172 0.28074467
0.15929137 0.12078245 0.28021276
0.15962037 0.12059903 0.27978724
0.16000855 0.12046146 0.27946809
0.16057879 0.12046146 0.27946809
0.16127172 0.12055317 0.27968085
0.16202708 0.12069074 0.28
0.16278374 0.12082831 0.28031915
0.16341771 0.12087415 0.28042552
0.16386549 0.12078245 0.28021276
0.16424997 0.12064488 0.27989361
0.16457051 0.12046146 0.27946809
0.16507788 0.12041561 0.2793617
0.16558485 0.12036975 0.27925533
0.16609135 0.1203239 0.27914894
0.16653392 0.12023219 0.27893618
0.16697562 0.12014049 0.27872342
0.16748039 0.12009462 0.27861702
0.1680489 0.12009462 0.27861702
0.16855302 0.12004876 0.27851063
0.16905673 0.12000292 0.27840427
0.16949515 0.11991119 0.27819148
0.16993272 0.11981949 0.27797872
0.17030418 0.11968192 0.27765957
0.17060888 0.11949851 0.27723405
0.1709775 0.11936094 0.27691489
0.17141074 0.11926923 0.27670214
0.17197534 0.11926923 0.27670214
0.17260627 0.11931508 0.2768085
0.1733042 0.1194068 0.27702129
0.17393622 0.11945265 0.27712765
0.17456868 0.11949851 0.27723405
0.17513438 0.11949851 0.27723405
0.17556521 0.1194068 0.27702129
0.17579226 0.11917751 0.27648935
0.17594931 0.11890239 0.27585107
0.17617181 0.11867312 0.27531916
0.176597 0.1185814 0.27510637
0.17715834 0.1185814 0.27510637
0.17771968 0.1185814 0.27510637
-0.039309628 0.1381245 0.31893617
-0.038581479 0.13784806 0.31829786
-0.037868615 0.13761771 0.31776595
-0.037170384 0.13743342 0.31734043
-0.036498372 0.13734126 0.31712765
-0.03583926 0.1372952 0.31702128
-0.035156958 0.13715698 0.31670213
-0.03447596 0.13701877 0.31638297
-0.033819016 0.1369727 0.31627661
-0.03319598 0.13706484 0.31648937
-0.032604903 0.1372952 0.31702128
-0.032000925 0.13747948 0.3174468
-0.031374201 0.13757163 0.31765959
-0.030715737 0.13752556 0.31755319
-0.030027488 0.13734126 0.31712765
-0.029321266 0.13706484 0.31648937
-0.028608007 0.13674232 0.31574467
-0.027907211 0.13646591 0.31510639
-0.027227428 0.13628161 0.31468084
-0.026558369 0.13614339 0.31436169
-0.025925696 0.13618946 0.31446809
-0.025335355 0.13646591 0.31510639
-0.024750745 0.1367884 0.31585106
-0.024138739 0.1369727 0.31627661
-0.023485485 0.13692662 0.31617022
-0.022801924 0.13669626 0.3156383
-0.022113066 0.13641983 0.315
-0.021448566 0.13628161 0.31468084
-0.020806471 0.13628161 0.31468084
-0.020178007 0.13637374 0.3148936
-0.019535478 0.13637374 0.3148936
-0.018880183 0.13628161 0.31468084
-0.018225756 0.13618946 0.31446809
-0.017566249 0.13605125 0.31414893
-0.016913775 0.1359591 0.31393617
-0.01626217 0.13586697 0.31372342
-0.015611432 0.13577481 0.31351063
-0.014971725 0.13577481 0.31351063
-0.014327154 0.13572875 0.31340426
-0.013687664 0.13572875 0.31340426
-0.013043743 0.13568267 0.31329787
-0.012396045 0.13559052 0.31308511
-0.011761201 0.13563661 0.3131915
-0.011125921 0.13568267 0.31329787
-0.010490209 0.13572875 0.31340426
-0.0098507181 0.13572875 0.31340426
-0.0092049735 0.13563661 0.3131915
-0.0085600968 0.13554445 0.31297871
-0.0079187825 0.13549839 0.31287235
-0.0072754254 0.13540624 0.31265956
-0.0066306796 0.13526803 0.31234044
-0.005983152 0.13503766 0.3118085
-0.0053396206 0.13485338 0.31138298
-0.0047026468 0.13480729 0.31127658
-0.0040674973 0.13480729 0.31127658
-0.0034335209 0.13485338 0.31138298
-0.0027971982 0.13480729 0.31127658
-0.0021598323 0.1346691 0.31095746
-0.0015227245 0.13443872 0.31042552
-0.00088839745 0.13430052 0.3101064
-0.00025546033 0.13420835 0.30989361
0.00037699661 0.13425444 0.31
0.0010102341 0.13434657 0.31021276
0.0016443399 0.13443872 0.31042552
0.0022769722 0.13439265 0.31031916
0.0029071751 0.13425444 0.31
0.0035348607 0.13407014 0.30957446
0.0041608098 0.13388586 0.30914894
0.004789969 0.13383979 0.30904254
0.0054242923 0.13393193 0.30925533
0.006063649 0.13411622 0.30968085
0.0067024431 0.13425444 0.31
0.0073400219 0.13434657 0.31021276
0.0079757348 0.13439265 0.31031916
0.0086059794 0.13434657 0.31021276
0.0092389584 0.13434657 0.31021276
0.0098753227 0.13439265 0.31031916
0.010508519 0.13439265 0.31031916
0.011141715 0.13439265 0.31031916
0.011778946 0.13443872 0.31042552
0.012416613 0.1344848 0.31053191
0.013054715 0.13453087 0.31063831
0.013688562 0.13453087 0.31063831
0.014307694 0.13439265 0.31031916
0.014905035 0.13407014 0.30957446
0.015499338 0.13374764 0.30882978
0.016096158 0.13347121 0.30819148
0.016707694 0.133333 0.30787235
0.017317925 0.13319477 0.3075532
0.017933061 0.13310263 0.30734041
0.018560179 0.13310263 0.30734041
0.01919394 0.1331487 0.30744681
0.019821275 0.1331487 0.30744681
0.020427382 0.13301048 0.30712765
0.021017602 0.13278012 0.30659574
0.021605652 0.13254976 0.30606383
0.022214713 0.13245761 0.30585107
0.022870565 0.1326419 0.30627659
0.023536317 0.13287227 0.3068085
0.024179107 0.13296442 0.30702129
0.024771193 0.13278012 0.30659574
0.025326293 0.13241154 0.30574468
0.025886951 0.13208905 0.30500001
0.0264908 0.1319969 0.30478725
0.027141096 0.13213511 0.30510637
0.02780238 0.13231941 0.30553192
0.028445601 0.13241154 0.30574468
0.029059349 0.13236547 0.30563828
0.02966233 0.13227333 0.30542552
0.030264443 0.13218118 0.30521277
0.030876452 0.13213511 0.30510637
0.031499013 0.13213511 0.30510637
0.032121573 0.13213511 0.30510637
0.032721296 0.13204296 0.30489361
0.033296887 0.13185868 0.3044681
0.033858888 0.13162832 0.30393618
0.034430787 0.13144402 0.30351064
0.035013232 0.13130581 0.30319148
0.035581876 0.13112153 0.30276597
0.036148779 0.13093723 0.30234042
0.03675276 0.13089117 0.30223405
0.037422072 0.13107546 0.30265957
0.038173348 0.13153617 0.30372339
0.038928963 0.1319969 0.30478725
0.039578483 0.13208905 0.30500001
0.04011669 0.1318126 0.3043617
0.040595341 0.13135189 0.30329788
0.041069653 0.13089117 0.30223405
0.041612986 0.1306608 0.30170214
0.042228598 0.1306608 0.30170214
0.042919748 0.13089117 0.30223405
0.043628387 0.13116759 0.30287233
0.044308558 0.13135189 0.30329788
0.044927426 0.13135189 0.30329788
0.045514345 0.13125974 0.30308512
0.046084203 0.13112153 0.30276597
0.046636343 0.13093723 0.30234042
0.047220007 0.13084508 0.30212766
0.047785956 0.13070688 0.30180851
0.048401788 0.13070688 0.30180851
0.049017616 0.13070688 0.30180851
0.049668435 0.13079901 0.30202127
0.05032013 0.13089117 0.30223405
0.050954752 0.13093723 0.30234042
0.051553525 0.13089117 0.30223405
0.052060042 0.13061473 0.30159575
0.052526794 0.13024615 0.30074468
0.053027667 0.12996972 0.30010638
0.053601999 0.12987757 0.29989362
0.054213919 0.12987757 0.29989362
0.054845296 0.12992366 0.30000001
0.055437766 0.12987757 0.29989362
0.056009926 0.12978543 0.29968086
0.05658121 0.12969328 0.29946807
0.057171952 0.12964721 0.29936171
0.05776225 0.12960114 0.29925531
0.058372874 0.12960114 0.29925531
0.058962528 0.12955508 0.29914895
0.059530556 0.12946291 0.29893616
0.060012117 0.1291865 0.29829788
0.060447827 0.12881792 0.29744682
0.060901899 0.1284954 0.29670212
0.061485261 0.12844934 0.29659575
0.062179532 0.12863362 0.29702127
0.062875547 0.12881792 0.29744682
0.06352789 0.12891006 0.29765958
0.064112328 0.12886398 0.29755318
0.064696342 0.12881792 0.29744682
0.065303273 0.12881792 0.29744682
0.065910198 0.12881792 0.29744682
0.066540919 0.12886398 0.29755318
0.067148067 0.12886398 0.29755318
0.067682534 0.12872577 0.29723403
0.068191275 0.12854148 0.29680851
0.068673611 0.12831111 0.2962766
0.069228403 0.12821898 0.29606384
0.069857597 0.12826504 0.2961702
0.070512548 0.1283572 0.29638299
0.071168356 0.12844934 0.29659575
0.071799293 0.1284954 0.29670212
0.072378747 0.12844934 0.29659575
0.072957762 0.12840326 0.29648936
0.073562734 0.12840326 0.29648936
0.074220933 0.1284954 0.29670212
0.074853174 0.12854148 0.29680851
0.075377665 0.12840326 0.29648936
0.075710014 0.12794255 0.29542553
0.076038018 0.12748182 0.29436171
0.076472461 0.12720539 0.2937234
0.077099718 0.12725146 0.2938298
0.077811785 0.12743574 0.29425532
0.078525603 0.12762004 0.29468086
0.079184018 0.12771218 0.29489362
0.079728179 0.12762004 0.29468086
0.080213457 0.12743574 0.29425532
0.080667794 0.12720539 0.2937234
0.081119955 0.12697503 0.29319149
0.081629254 0.12683681 0.29287234
0.082256719 0.12688288 0.29297873
0.083035037 0.12715931 0.29361701
0.08381597 0.12743574 0.29425532
0.084477425 0.12752789 0.29446808
0.084986068 0.12738967 0.29414892
0.085400552 0.12711324 0.29351065
0.085905939 0.12697503 0.29319149
0.086535573 0.1270211 0.29329789
0.087165639 0.12706716 0.29340425
0.087827966 0.12715931 0.29361701
0.088523194 0.12729752 0.29393616
0.089251988 0.12748182 0.29436171
0.089885093 0.12752789 0.29446808
0.090322495 0.12729752 0.29393616
0.090659007 0.12692896 0.2930851
0.090992041 0.12656038 0.29223403
0.091454975 0.12637609 0.29180852
0.092050403 0.12637609 0.29180852
0.092645831 0.12637609 0.29180852
0.093241252 0.12637609 0.29180852
0.093734048 0.12623787 0.29148936
0.094225541 0.12609965 0.29117021
0.094715729 0.12596144 0.29085106
0.095239483 0.12586929 0.2906383
0.095832527 0.12586929 0.2906383
0.096460856 0.12591536 0.29074469
0.097125135 0.12600751 0.29095745
0.097754546 0.12605357 0.29106382
0.098348454 0.12605357 0.29106382
0.098833881 0.12591536 0.29074469
0.099281609 0.12573107 0.29031914
0.099764198 0.12559286 0.28999999
0.10039275 0.12563893 0.29010639
0.1012069 0.12591536 0.29074469
0.10202364 0.12619179 0.29138297
0.1026182 0.12619179 0.29138297
0.10298666 0.12591536 0.29074469
0.10323881 0.12550071 0.28978723
0.1035633 0.12517822 0.28904256
0.10411475 0.12513213 0.28893617
0.10489707 0.1253625 0.28946808
0.10572033 0.12563893 0.29010639
0.10654619 0.12591536 0.29074469
0.10717864 0.12596144 0.29085106
0.10765386 0.12582321 0.2905319
0.10800887 0.12554678 0.28989363
0.10832141 0.12522428 0.28914893
0.10875113 0.12503999 0.28872341
0.10938054 0.12508605 0.28882977
0.1101319 0.12527035 0.28925532
0.110885 0.12545463 0.28968084
0.11159891 0.12559286 0.28999999
0.11214949 0.12554678 0.28989363
0.11261689 0.12540857 0.28957447
0.11304139 0.12522428 0.28914893
0.11354778 0.12513213 0.28893617
0.11409532 0.12508605 0.28882977
0.11468466 0.12508605 0.28882977
0.1151891 0.12499391 0.28861701
0.11560731 0.12480963 0.2881915
0.11606668 0.12467141 0.28787234
0.11665408 0.12467141 0.28787234
0.11728479 0.12471748 0.28797871
0.11791595 0.12476356 0.2880851
0.11859129 0.1248557 0.28829786
0.11922354 0.12490177 0.28840426
0.11990041 0.12499391 0.28861701
0.1204005 0.12490177 0.28840426
0.12076584 0.12467141 0.28787234
0.12099446 0.12430283 0.28702128
0.12130973 0.1240264 0.28638297
0.12175824 0.12388818 0.28606382
0.12234195 0.12388818 0.28606382
0.12287994 0.12384212 0.28595746
0.12337156 0.12374996 0.28574467
0.12381618 0.12361176 0.28542554
0.12444494 0.12365782 0.28553191
0.12521389 0.12384212 0.28595746
0.12607817 0.12411854 0.28659573
0.12685104 0.12430283 0.28702128
0.12753116 0.12439498 0.28723404
0.1280698 0.12434892 0.28712767
0.12841733 0.12411854 0.28659573
0.12871481 0.12384212 0.28595746
0.12896158 0.12351961 0.28521276
0.12930195 0.12328924 0.28468084
0.12983431 0.12324318 0.28457448
0.13046372 0.12328924 0.28468084
0.13119151 0.12342747 0.285
0.13192061 0.12356568 0.28531915
0.132651 0.1237039 0.2856383
0.13338271 0.12384212 0.28595746
0.13401602 0.12388818 0.28606382
0.13449962 0.12379604 0.28585106
0.13493207 0.12365782 0.28553191
0.13541371 0.12356568 0.28531915
0.13589448 0.12347354 0.28510639
0.13647623 0.12347354 0.28510639
0.13721141 0.12361176 0.28542554
0.13799924 0.12379604 0.28585106
0.13873723 0.12393426 0.28617021
0.13926935 0.12388818 0.28606382
0.13964503 0.1237039 0.2856383
0.13996674 0.12347354 0.28510639
0.14018138 0.12315103 0.28436169
0.14044565 0.1228746 0.28372341
0.14076018 0.12264424 0.2831915
0.14123183 0.12255209 0.28297871
0.14186256 0.12259816 0.28308511
0.14260077 0.12273638 0.28340426
0.14339402 0.12292066 0.28382978
0.14402714 0.12296674 0.28393617
0.1446065 0.12296674 0.28393617
0.14502268 0.12282852 0.28361702
0.14543754 0.12269031 0.28329787
0.14579628 0.12250602 0.28287235
0.14620833 0.12236781 0.2825532
0.1465638 0.12218351 0.28212765
0.14680658 0.12190709 0.28148937
0.14704674 0.12163065 0.28085107
0.14739615 0.12144636 0.28042552
0.14785609 0.12135421 0.28021276
0.1484842 0.12140029 0.28031915
0.14916931 0.12149243 0.28053191
0.14991209 0.12163065 0.28085107
0.15059915 0.12172279 0.28106382
0.15117265 0.12172279 0.28106382
0.15168872 0.12167673 0.28095746
0.15203139 0.12149243 0.28053191
0.15248807 0.12140029 0.28031915
0.15294388 0.12130815 0.2801064
0.15345712 0.12126207 0.28
0.15402845 0.12126207 0.28
0.15465853 0.12130815 0.2801064
0.15528902 0.12135421 0.28021276
0.15591997 0.12140029 0.28031915
0.15637317 0.12130815 0.2801064
0.15676589 0.12116993 0.27978724
0.15721713 0.12107778 0.27957445
0.15772757 0.12103171 0.27946809
0.15811703 0.12089349 0.27914894
0.15844473 0.12070921 0.27872342
0.15877068 0.12052491 0.27829787
0.15915582 0.1203867 0.27797872
0.15972301 0.1203867 0.27797872
0.16047426 0.12052491 0.27829787
0.16122679 0.12066313 0.27861702
0.16191886 0.12075527 0.27882978
0.16254979 0.12080135 0.27893618
0.16293232 0.12066313 0.27861702
0.1632511 0.12047884 0.27819148
0.16369346 0.1203867 0.27797872
0.16419782 0.12034063 0.27787235
0.16476481 0.12034063 0.27787235
0.1653318 0.12034063 0.27787235
0.16577174 0.12024847 0.27765957
0.16621085 0.12015633 0.27744681
0.166713 0.12011026 0.27734041
0.16727892 0.12011026 0.27734041
0.16784482 0.12011026 0.27734041
0.16834612 0.12006419 0.27723405
0.16871737 0.11992598 0.27691489
0.16908729 0.11978776 0.27659574
0.16932543 0.1195574 0.27606383
0.16962686 0.11937311 0.27563831
0.17005791 0.11928096 0.27542552
0.1706199 0.11928096 0.27542552
0.17131415 0.11937311 0.27563831
0.17200926 0.11946525 0.27585107
0.17263865 0.11951132 0.27595744
0.17320174 0.11951132 0.27595744
0.17369784 0.11946525 0.27585107
0.1741935 0.11941918 0.27574468
0.17462131 0.11932704 0.27553192
0.17498061 0.11918882 0.27521276
0.17527075 0.11900454 0.27478725
0.17562723 0.11886632 0.27446809
0.17605068 0.11877416 0.27425531
0.17661029 0.11877416 0.27425531
0.17723863 0.11882024 0.2743617
-0.047150403 0.13886786 0.31914893
-0.046437196 0.13868271 0.31872341
-0.045741003 0.13854383 0.31840426
-0.045091309 0.13854383 0.31840426
-0.044486161 0.13868271 0.31872341
-0.043879714 0.13882157 0.31904256
-0.043243129 0.13886786 0.31914893
-0.042577721 0.13882157 0.31904256
-0.041884784 0.13868271 0.31872341
-0.041220676 0.13863641 0.31861702
-0.040557005 0.13859013 0.31851065
-0.039853774 0.13840497 0.3180851
-0.039126061 0.13812722 0.3174468
-0.038375162 0.13775691 0.31659573
-0.037653096 0.13747919 0.31595746
-0.036958549 0.13729402 0.31553191
-0.036302477 0.13724774 0.31542554
-0.035646833 0.13720144 0.31531915
-0.034979817 0.13710886 0.31510639
-0.034290481 0.1369237 0.31468084
-0.03363701 0.13687742 0.31457448
-0.033006288 0.1369237 0.31468084
-0.032407958 0.13710886 0.31510639
-0.031797167 0.13724774 0.31542554
-0.031174567 0.13734031 0.3156383
-0.030530518 0.13734031 0.3156383
-0.02985625 0.13720144 0.31531915
-0.029163571 0.13697 0.31478724
-0.028473064 0.13673855 0.31425533
-0.027784729 0.13650711 0.31372342
-0.027098564 0.13627566 0.3131915
-0.026441529 0.13618307 0.31297871
-0.025811678 0.13622937 0.31308511
-0.025215605 0.13646081 0.31361702
-0.024634035 0.13678484 0.31436169
-0.024033187 0.13701628 0.3148936
-0.023390656 0.13701628 0.3148936
-0.022717388 0.13683113 0.31446809
-0.022030916 0.13655339 0.31382978
-0.021354303 0.13632195 0.31329787
-0.020707997 0.13627566 0.3131915
-0.020082572 0.13636824 0.31340426
-0.01945628 0.13646081 0.31361702
-0.018809972 0.13641451 0.31351063
-0.018151769 0.13627566 0.3131915
-0.017500814 0.13618307 0.31297871
-0.01685646 0.1361368 0.31287235
-0.016218055 0.1361368 0.31287235
-0.015579649 0.1361368 0.31287235
-0.014936163 0.1360905 0.31276596
-0.014288248 0.13599792 0.3125532
-0.013636556 0.13585906 0.31223404
-0.012986165 0.13572018 0.31191489
-0.012341289 0.13562761 0.31170213
-0.011705271 0.13562761 0.31170213
-0.011084365 0.13581276 0.31212765
-0.010458161 0.13595162 0.3124468
-0.0098239677 0.13599792 0.3125532
-0.0091768336 0.13585906 0.31223404
-0.008528091 0.1356739 0.3118085
-0.0078783939 0.13544245 0.31127658
-0.0072358185 0.13530359 0.31095746
-0.0065945447 0.13516472 0.31063831
-0.0059525324 0.13497956 0.31021276
-0.0053140805 0.13484068 0.30989361
-0.004681753 0.13484068 0.30989361
-0.0040508159 0.13488698 0.31
-0.0034194444 0.13493328 0.3101064
-0.0027857265 0.13488698 0.31
-0.0021502262 0.13470182 0.30957446
-0.0015159406 0.13447037 0.30904254
-0.00088443543 0.13433149 0.30872339
-0.00025440796 0.13428523 0.30861703
0.00037570286 0.13442409 0.30893618
0.0010067697 0.13451667 0.30914894
0.0016387047 0.13460924 0.3093617
0.0022691665 0.13456295 0.30925533
0.002898196 0.13447037 0.30904254
0.0035239283 0.13428523 0.30861703
0.0041479236 0.13410005 0.30819148
0.0047734804 0.13400748 0.30797872
0.0054019005 0.13400748 0.30797872
0.0060344869 0.13410005 0.30819148
0.0066656414 0.13414635 0.30829787
0.0072972304 0.13419265 0.30840427
0.0079237847 0.13414635 0.30829787
0.0085499045 0.13410005 0.30819148
0.0091724219 0.13400748 0.30797872
0.009800843 0.13400748 0.30797872
0.010436468 0.13410005 0.30819148
0.011072962 0.13419265 0.30840427
0.011706286 0.13423893 0.30851063
0.012340046 0.13428523 0.30861703
0.012969769 0.13428523 0.30861703
0.013599492 0.13428523 0.30861703
0.014219405 0.13419265 0.30840427
0.014823084 0.1339612 0.30787235
0.015419252 0.13368346 0.30723405
0.016012816 0.13340572 0.30659574
0.016615322 0.13322057 0.30617023
0.01722208 0.1330817 0.30585107
0.017833743 0.13298911 0.30563828
0.018450964 0.13294283 0.30553192
0.019081034 0.13298911 0.30563828
0.019704677 0.13298911 0.30563828
0.020321248 0.13294283 0.30553192
0.020915503 0.13275766 0.30510637
0.021500515 0.13252622 0.30457446
0.022098808 0.13238735 0.30425531
0.022727575 0.13243365 0.3043617
0.023373097 0.13257252 0.30468085
0.024003169 0.13261881 0.30478725
0.024590695 0.13243365 0.3043617
0.02515886 0.13215591 0.30372339
0.025742482 0.13197075 0.30329788
0.026370596 0.13201703 0.30340424
0.027027536 0.13220221 0.30382979
0.027686212 0.13238735 0.30425531
0.028316934 0.13243365 0.3043617
0.028927857 0.13238735 0.30425531
0.029528018 0.13229477 0.30404255
0.030127309 0.13220221 0.30382979
0.030714966 0.13206333 0.30351064
0.031312305 0.13197075 0.30329788
0.031931173 0.13197075 0.30329788
0.032538626 0.13192447 0.30319148
0.033145644 0.13187818 0.30308512
0.033728525 0.1317393 0.30276597
0.034310102 0.13160044 0.30244681
0.034878094 0.13141528 0.30202127
0.035431847 0.13118383 0.30148935
0.03597071 0.13090611 0.30085108
0.036545776 0.13076724 0.30053192
0.037198465 0.13090611 0.30085108
0.037919305 0.13127641 0.30170214
0.038630031 0.13160044 0.30244681
0.039260969 0.13164672 0.30255318
0.039808206 0.13141528 0.30202127
0.040296324 0.13099869 0.30106384
0.040809438 0.13067465 0.30031914
0.041363541 0.1304895 0.29989362
0.041975461 0.1304895 0.29989362
0.042647813 0.13067465 0.30031914
0.043352552 0.13095239 0.30095744
0.044059895 0.13123013 0.30159575
0.044706807 0.1313227 0.30180851
0.045306664 0.13127641 0.30170214
0.045873698 0.13113755 0.30138299
0.046423018 0.13095239 0.30095744
0.047003862 0.13085981 0.30074468
0.047583833 0.13076724 0.30053192
0.048179995 0.13072094 0.30042553
0.048793003 0.13072094 0.30042553
0.049423508 0.13076724 0.30053192
0.050054442 0.13081352 0.30063829
0.050685816 0.13085981 0.30074468
0.051281329 0.13081352 0.30063829
0.051821321 0.13062836 0.30021277
0.05232241 0.13035063 0.29957446
0.052820895 0.13007289 0.29893616
0.053354807 0.12988773 0.29851064
0.053906213 0.12974887 0.29819149
0.054495212 0.12970257 0.29808509
0.055064116 0.12961 0.29787233
0.055632152 0.12951742 0.29765958
0.056239516 0.12951742 0.29765958
0.056846879 0.12951742 0.29765958
0.057474781 0.12956372 0.29776597
0.058103107 0.12961 0.29787233
0.058731876 0.12965629 0.29797873
0.059318706 0.12961 0.29787233
0.059798088 0.12933226 0.29723403
0.060210012 0.12891567 0.2962766
0.060683534 0.12863792 0.29563829
0.06124267 0.12854534 0.29542553
0.061890017 0.12863792 0.29563829
0.062515743 0.12868422 0.29574469
0.063073792 0.12859164 0.29553193
0.06360805 0.12845278 0.29521278
0.064187281 0.12840648 0.29510638
0.064812794 0.12845278 0.29521278
0.065509453 0.12863792 0.29563829
0.066184066 0.12877679 0.29595745
0.066811971 0.12882309 0.29606384
0.06739185 0.12877679 0.29595745
0.067897975 0.12859164 0.29553193
0.068377703 0.12836018 0.29499999
0.068880141 0.12817504 0.29457447
0.069456115 0.12812874 0.29446808
0.070056967 0.12812874 0.29446808
0.070683353 0.12817504 0.29457447
0.071284421 0.12817504 0.29457447
0.071885489 0.12817504 0.29457447
0.072460376 0.12812874 0.29446808
0.073061228 0.12812874 0.29446808
0.073688701 0.12817504 0.29457447
0.074289769 0.12817504 0.29457447
0.074836746 0.12808245 0.29436171
0.075246535 0.12775843 0.29361701
0.075625807 0.1273881 0.29276595
0.076057009 0.12711038 0.29212767
0.076653086 0.12711038 0.29212767
0.077361681 0.12729554 0.29255319
0.078072026 0.1274807 0.29297873
0.07872697 0.12757327 0.29319149
0.079267651 0.1274807 0.29297873
0.07980746 0.1273881 0.29276595
0.080287978 0.12720296 0.29234043
0.080766745 0.1270178 0.29191488
0.081273444 0.12687893 0.29159576
0.081898294 0.12692522 0.29170212
0.082613848 0.12711038 0.29212767
0.083361439 0.12734182 0.29265958
0.083989114 0.1273881 0.29276595
0.084463552 0.12720296 0.29234043
0.084905297 0.12697151 0.29180852
0.085438386 0.12687893 0.29159576
0.086033374 0.12687893 0.29159576
0.086723171 0.1270178 0.29191488
0.08741428 0.12715666 0.29223403
0.088202812 0.1274344 0.29287234
0.088993944 0.12771215 0.29351065
0.089625306 0.12775843 0.29361701
0.0899956 0.1274344 0.29287234
0.090198316 0.12687893 0.29159576
0.090428941 0.12636976 0.29042554
0.090888172 0.12618458 0.28999999
0.09151347 0.12623088 0.29010639
0.092172973 0.12632346 0.29031914
0.092799351 0.12636976 0.29042554
0.093323536 0.12627718 0.29021278
0.093777999 0.12609202 0.28978723
0.094265364 0.12595314 0.28946808
0.094751433 0.12581427 0.28914893
0.095341429 0.12581427 0.28914893
0.095966727 0.12586057 0.28925532
0.096663482 0.12599944 0.28957447
0.097325802 0.12609202 0.28978723
0.097917102 0.12609202 0.28978723
0.098363757 0.12590687 0.28936172
0.09877228 0.12567541 0.28882977
0.099178642 0.12544397 0.28829786
0.099803723 0.12549025 0.28840426
0.10061439 0.12576799 0.28904256
0.10150217 0.12613831 0.28989363
0.10216861 0.12623088 0.29010639
0.10260983 0.12604572 0.28968084
0.10285982 0.12562913 0.28872341
0.10322025 0.12535138 0.2880851
0.10373141 0.1252588 0.28787234
0.10443446 0.12539768 0.2881915
0.10521634 0.12562913 0.28872341
0.10592243 0.12576799 0.28904256
0.10651221 0.12576799 0.28904256
0.10694431 0.12558283 0.28861701
0.10721613 0.12521252 0.28776595
0.10748448 0.1248422 0.28691489
0.10786957 0.12461075 0.28638297
0.10849422 0.12465705 0.28648937
0.10928131 0.12488849 0.28702128
0.1101113 0.12516624 0.28765959
0.11082107 0.12530509 0.28797871
0.11140868 0.12530509 0.28797871
0.11191355 0.12521252 0.28776595
0.11237595 0.12507364 0.2874468
0.11292068 0.12502736 0.28734043
0.113549 0.12507364 0.2874468
0.11422002 0.12516624 0.28765959
0.11476452 0.12511994 0.28755319
0.11522324 0.12498107 0.28723404
0.11563776 0.12479592 0.28680852
0.11613676 0.12470333 0.28659573
0.11667822 0.12465705 0.28648937
0.1172628 0.12465705 0.28648937
0.11784737 0.12465705 0.28648937
0.11856388 0.12479592 0.28680852
0.11932588 0.12498107 0.28723404
0.11995638 0.12502736 0.28734043
0.1204088 0.12488849 0.28702128
0.12068054 0.12456448 0.28627661
0.1209943 0.12428673 0.2856383
0.12144129 0.12414786 0.28531915
0.12197797 0.12410157 0.28521276
0.12246852 0.124009 0.285
0.12286633 0.12382384 0.28457448
0.12326239 0.12363868 0.28414893
0.12384219 0.12363868 0.28414893
0.12460832 0.12382384 0.28457448
0.12542298 0.12405529 0.28510639
0.12619279 0.12424044 0.28553191
0.12686987 0.12433302 0.28574467
0.12740548 0.12428673 0.2856383
0.12774998 0.12405529 0.28510639
0.12799653 0.12373126 0.28436169
0.12828816 0.12345353 0.28372341
0.12872213 0.12331466 0.28340426
0.12920333 0.12322208 0.2831915
0.12978117 0.12322208 0.2831915
0.13035902 0.12322208 0.2831915
0.13103524 0.12331466 0.28340426
0.13176173 0.12345353 0.28372341
0.13253914 0.12363868 0.28414893
0.13316877 0.12368497 0.28425533
0.13364868 0.1235924 0.28404257
0.13407744 0.12345353 0.28372341
0.1345049 0.12331466 0.28340426
0.13503246 0.12326837 0.28329787
0.13576329 0.12340724 0.28361702
0.13659771 0.12363868 0.28414893
0.13748565 0.12391642 0.28478724
0.13822149 0.12405529 0.28510639
0.13869964 0.1239627 0.2848936
0.1390209 0.12373126 0.28436169
0.13923556 0.12340724 0.28361702
0.13955206 0.12317579 0.28308511
0.13986638 0.12294435 0.2825532
0.14017853 0.1227129 0.28202128
0.1406478 0.12262032 0.28180853
0.14122282 0.12262032 0.28180853
0.14190491 0.1227129 0.28202128
0.14253409 0.12275918 0.28212765
0.14310977 0.12275918 0.28212765
0.14363126 0.1227129 0.28202128
0.14409792 0.12262032 0.28180853
0.14450911 0.12248146 0.28148937
0.14486414 0.12229629 0.28106382
0.14521746 0.12211114 0.28063831
0.14562429 0.12197227 0.28031915
0.14602983 0.1218334 0.28
0.14643405 0.12169453 0.27968085
0.14683698 0.12155566 0.2793617
0.14729474 0.12146308 0.27914894
0.14786434 0.12146308 0.27914894
0.14854707 0.12155566 0.2793617
0.14928745 0.12169453 0.27968085
0.14997213 0.12178711 0.27989361
0.15054324 0.12178711 0.27989361
0.15099949 0.12169453 0.27968085
0.15133956 0.12150938 0.27925533
0.15179363 0.12141679 0.27904254
0.15224683 0.12132422 0.27882978
0.15275748 0.12127794 0.27872342
0.15326768 0.12123164 0.27861702
0.15377744 0.12118535 0.27851063
0.15428679 0.12113906 0.27840427
0.15479568 0.12109277 0.27829787
0.15524477 0.12100019 0.27808511
0.15569298 0.12090762 0.27787235
0.15620014 0.12086133 0.27776596
0.15670685 0.12081503 0.27765957
0.15721317 0.12076875 0.2775532
0.15765855 0.12067616 0.27734041
0.15804239 0.1205373 0.27702129
0.1584858 0.12044472 0.2768085
0.15911175 0.12049101 0.27691489
0.15973814 0.1205373 0.27702129
0.16042651 0.12062988 0.27723405
0.16105397 0.12067616 0.27734041
0.16155788 0.12062988 0.27723405
0.16199915 0.1205373 0.27702129
0.16231468 0.12035214 0.27659574
0.16275378 0.12025957 0.27638298
0.16331773 0.12025957 0.27638298
0.16394475 0.12030584 0.27648935
0.16450891 0.12030584 0.27648935
0.16494606 0.12021327 0.27627659
0.16544607 0.12016699 0.27617022
0.16588168 0.1200744 0.27595744
0.16644476 0.1200744 0.27595744
0.16700785 0.1200744 0.27595744
0.16750634 0.12002812 0.27585107
0.16787475 0.11988925 0.27553192
0.16817681 0.11970409 0.27510637
0.16847718 0.11951894 0.27468085
0.16884124 0.11938006 0.2743617
0.16933538 0.11933377 0.27425531
0.16996089 0.11938006 0.2743617
0.17065296 0.11947265 0.27457446
0.1713459 0.11956523 0.27478725
