# .PCD v0.7 - Point Cloud Data file format
VERSION 0.7
FIELDS x y z
SIZE 4 4 4
TYPE F F F
COUNT 1 1 1
WIDTH 1373
HEIGHT 1
VIEWPOINT 0 0 0 1 0 0 0
POINTS 1373
DATA ascii
0.17705438 0.10085012 0.30276597
0.17742243 0.10070837 0.30234042
0.17797671 0.10067295 0.30223405
0.17853054 0.1006375 0.30212766
0.17914702 0.1006375 0.30212766
0.15709728 0.087349094 0.26223403
0.15737657 0.087207355 0.26180851
0.15739746 0.086923875 0.26095745
0.1573505 0.086604945 0.25999999
0.15742882 0.086356901 0.25925532
0.15763374 0.086179718 0.25872341
0.1578365 0.086002544 0.2581915
0.15836333 0.086002544 0.2581915
0.15928295 0.086215153 0.25882977
0.16073067 0.086711258 0.26031914
0.16271169 0.087490842 0.26265958
-0.16253351 0.086279802 0.2574468
-0.16194126 0.086244151 0.25734043
-0.1612827 0.086172849 0.25712767
-0.16062501 0.086101539 0.25691488
-0.16003451 0.086065888 0.25680852
-0.15951049 0.086065888 0.25680852
-0.15898648 0.086065888 0.25680852
-0.15839683 0.08603023 0.25670213
-0.15774219 0.085958928 0.25648937
-0.15715361 0.085923269 0.25638297
-0.15656549 0.085887626 0.25627661
-0.15604256 0.085887626 0.25627661
-0.15558419 0.085923269 0.25638297
-0.15506105 0.085923269 0.25638297
-0.15460204 0.085958928 0.25648937
-0.1542704 0.086065888 0.25680852
-0.15393746 0.086172849 0.25712767
-0.15360321 0.086279802 0.2574468
-0.15320441 0.086351112 0.25765958
-0.15286779 0.086458072 0.25797874
-0.15246703 0.086529374 0.2581915
-0.1520028 0.086565025 0.25829786
-0.15147574 0.086565025 0.25829786
-0.15101087 0.086600676 0.25840425
-0.15060751 0.086671978 0.25861701
-0.15026502 0.086778939 0.25893617
-0.14998275 0.086921558 0.25936171
-0.14963743 0.087028511 0.25968084
-0.14916864 0.087064162 0.25978723
-0.14869943 0.08709982 0.25989363
-0.14816913 0.08709982 0.25989363
-0.14763883 0.08709982 0.25989363
-0.14704829 0.087064162 0.25978723
-0.14651822 0.087064162 0.25978723
-0.14598812 0.087064162 0.25978723
-0.14557716 0.087135464 0.25999999
-0.14522469 0.087242424 0.26031914
-0.14498916 0.087420687 0.26085106
-0.14469257 0.087563306 0.2612766
-0.14439423 0.08770591 0.26170212
-0.14386024 0.08770591 0.26170212
-0.14320971 0.087634608 0.26148936
-0.14244398 0.087492004 0.26106384
-0.14167997 0.087349385 0.2606383
-0.14103292 0.087278083 0.26042554
-0.14044413 0.087242424 0.26031914
-0.14002731 0.087313734 0.2605319
-0.13966659 0.087420687 0.26085106
-0.13936131 0.087563306 0.2612766
-0.13911082 0.087741569 0.26180851
-0.13880183 0.087884173 0.26223403
-0.13837895 0.08795549 0.26244682
-0.13784343 0.08795549 0.26244682
-0.13725226 0.087919831 0.26234043
-0.13677241 0.08795549 0.26244682
-0.1362921 0.087991133 0.26255319
-0.13581139 0.088026792 0.26265958
-0.13533022 0.088062443 0.26276594
-0.13484864 0.088098094 0.26287234
-0.13431226 0.088098094 0.26287234
-0.13377587 0.088098094 0.26287234
-0.13329342 0.088133752 0.26297873
-0.1328105 0.088169396 0.2630851
-0.13238068 0.088240713 0.26329789
-0.13194996 0.088312015 0.26351064
-0.13151838 0.088383317 0.2637234
-0.13103311 0.088418975 0.2638298
-0.13049477 0.088418975 0.2638298
-0.12985162 0.088347659 0.26361701
-0.12926154 0.088312015 0.26351064
-0.12872386 0.088312015 0.26351064
-0.12823792 0.088347659 0.26361701
-0.12780309 0.088418975 0.2638298
-0.12736738 0.088490278 0.26404256
-0.12682861 0.088490278 0.26404256
-0.12623896 0.088454619 0.26393616
-0.12559907 0.088383317 0.2637234
-0.12511142 0.088418975 0.2638298
-0.12467353 0.088490278 0.26404256
-0.12438483 0.08866854 0.26457447
-0.12409396 0.088846803 0.26510638
-0.12380092 0.089025065 0.26563829
-0.12335762 0.089096367 0.26585105
-0.12291346 0.089167684 0.26606384
-0.12241948 0.089203328 0.2661702
-0.12187637 0.089203328 0.2661702
-0.12138176 0.089238986 0.2662766
-0.12093498 0.089310288 0.26648936
-0.1205354 0.089417249 0.26680851
-0.12013452 0.089524209 0.26712766
-0.11982758 0.089702472 0.26765957
-0.11951847 0.089880735 0.26819149
-0.1192544 0.090094656 0.26882979
-0.11894073 0.090272918 0.2693617
-0.11853138 0.090379879 0.26968086
-0.11793456 0.09034422 0.26957446
-0.11729186 0.090272918 0.2693617
-0.11665003 0.090201616 0.26914895
-0.11610084 0.090201616 0.26914895
-0.11559732 0.09023726 0.26925531
-0.11509337 0.090272918 0.2693617
-0.11454374 0.090272918 0.2693617
-0.1139491 0.09023726 0.26925531
-0.11335489 0.090201616 0.26914895
-0.1128057 0.090201616 0.26914895
-0.11230087 0.09023726 0.26925531
-0.11179563 0.090272918 0.2693617
-0.11137781 0.090379879 0.26968086
-0.11091498 0.090451181 0.26989362
-0.11049477 0.090558141 0.27021277
-0.10994341 0.090558141 0.27021277
-0.10939205 0.090558141 0.27021277
-0.10879783 0.090522483 0.27010638
-0.10820407 0.090486839 0.27000001
-0.10765314 0.090486839 0.27000001
-0.10714441 0.090522483 0.27010638
-0.10659327 0.090522483 0.27010638
-0.10616742 0.090629444 0.27042553
-0.10582337 0.090807706 0.27095744
-0.10555981 0.091057286 0.27170214
-0.10516986 0.09119989 0.27212766
-0.10469639 0.091271192 0.27234042
-0.10418137 0.09130685 0.27244681
-0.10370637 0.091378152 0.27265957
-0.10331101 0.091520771 0.27308512
-0.10287387 0.091627717 0.27340424
-0.10231599 0.091627717 0.27340424
-0.10167894 0.091556415 0.27319148
-0.10108212 0.091520771 0.27308512
-0.1005249 0.091520771 0.27308512
-0.10000662 0.091556415 0.27319148
-0.099487916 0.091592073 0.27329788
-0.098930255 0.091592073 0.27329788
-0.098334305 0.091556415 0.27319148
-0.097738802 0.091520771 0.27308512
-0.097257294 0.091592073 0.27329788
-0.096812561 0.091699034 0.27361703
-0.09647879 0.09191294 0.27425531
-0.096105225 0.092091218 0.27478725
-0.095692486 0.092233822 0.27521276
-0.095167696 0.09226948 0.27531916
-0.094532803 0.092198163 0.27510637
-0.093898781 0.092126861 0.27489361
-0.09326563 0.092055559 0.27468085
-0.09259744 0.091948599 0.2743617
-0.092001922 0.09191294 0.27425531
-0.091477789 0.091948599 0.2743617
-0.090988465 0.092019901 0.27457446
-0.090533316 0.092126861 0.27489361
-0.090076864 0.092233822 0.27521276
-0.0895845 0.092305124 0.27542552
-0.089022502 0.092305124 0.27542552
-0.088460505 0.092305124 0.27542552
-0.087898508 0.092305124 0.27542552
-0.08733651 0.092305124 0.27542552
-0.086774521 0.092305124 0.27542552
-0.086279124 0.092376441 0.27563831
-0.085749775 0.092412084 0.27574468
-0.085187122 0.092412084 0.27574468
-0.084591836 0.092376441 0.27563831
-0.083996966 0.092340782 0.27553192
-0.083499178 0.092412084 0.27574468
-0.083032526 0.092519045 0.27606383
-0.082532786 0.092590347 0.27627659
-0.082000621 0.092626005 0.27638298
-0.081405319 0.092590347 0.27627659
-0.080810465 0.092554703 0.27617022
-0.080246948 0.092554703 0.27617022
-0.079714119 0.092590347 0.27627659
-0.079180866 0.092626005 0.27638298
-0.078647174 0.092661649 0.27648935
-0.078052968 0.092626005 0.27638298
-0.077489018 0.092626005 0.27638298
-0.076925069 0.092626005 0.27638298
-0.076390505 0.092661649 0.27648935
-0.075855516 0.092697307 0.27659574
-0.075349048 0.09276861 0.2768085
-0.074841715 0.092839926 0.27702129
-0.074390553 0.092982531 0.27744681
-0.073909357 0.093089491 0.27776596
-0.073342584 0.093089491 0.27776596
-0.072747938 0.093053833 0.27765957
-0.072126068 0.092982531 0.27744681
-0.07153251 0.092946872 0.27734041
-0.070993826 0.092982531 0.27744681
-0.070508718 0.093089491 0.27776596
-0.070049092 0.093232095 0.27819148
-0.069640882 0.093446016 0.27882978
-0.069177352 0.093588635 0.27925533
-0.068633676 0.093624279 0.2793617
-0.068011813 0.093552977 0.27914894
-0.06736511 0.093446016 0.27882978
-0.066745199 0.093374714 0.27861702
-0.066151418 0.093339056 0.27851063
-0.065583125 0.093339056 0.27851063
-0.064990006 0.093303412 0.27840427
-0.064446546 0.093339056 0.27851063
-0.063951448 0.093446016 0.27882978
-0.063503422 0.093624279 0.2793617
-0.063053221 0.093802541 0.27989361
-0.062600844 0.093980804 0.28042552
-0.06214631 0.094159082 0.28095746
-0.06166628 0.094301686 0.28138298
-0.061161421 0.094408646 0.28170213
-0.060609501 0.094444305 0.28180853
-0.060057137 0.094479948 0.28191489
-0.0594819 0.094479948 0.28191489
-0.058928892 0.094515607 0.28202128
-0.058397461 0.094586909 0.28223404
-0.057886958 0.094693869 0.2825532
-0.057396725 0.094836473 0.28297871
-0.056926116 0.095014736 0.28351063
-0.056411054 0.095121697 0.28382978
-0.055831909 0.095121697 0.28382978
-0.055232059 0.095086053 0.28372341
-0.05465313 0.095086053 0.28372341
-0.054053925 0.095050395 0.28361702
-0.053455155 0.095014736 0.28351063
-0.052817143 0.09490779 0.2831915
-0.052180424 0.09480083 0.28287235
-0.051603235 0.09480083 0.28287235
-0.05106442 0.094872132 0.28308511
-0.050543714 0.094979092 0.28340426
-0.050002947 0.095050395 0.28361702
-0.049442779 0.095086053 0.28372341
-0.048863851 0.095086053 0.28372341
-0.048284922 0.095086053 0.28372341
-0.047759656 0.095193014 0.28404257
-0.047233086 0.095299959 0.28436169
-0.046705216 0.09540692 0.28468084
-0.046124332 0.09540692 0.28468084
-0.045543451 0.09540692 0.28468084
-0.04496257 0.09540692 0.28468084
-0.044414856 0.095478222 0.2848936
-0.043882646 0.095585182 0.28521276
-0.043349132 0.095692143 0.28553191
-0.042798381 0.095763445 0.28574467
-0.042246766 0.095834762 0.28595746
-0.041663278 0.095834762 0.28595746
-0.041095071 0.095870405 0.28606382
-0.040526435 0.095906064 0.28617021
-0.039972212 0.095977366 0.28638297
-0.039431751 0.096084327 0.28670213
-0.038875572 0.096155629 0.28691489
-0.03831853 0.096226946 0.28712767
-0.037746634 0.096262589 0.28723404
-0.037174307 0.096298248 0.28734043
-0.036587998 0.096298248 0.28734043
-0.036028348 0.09636955 0.28755319
-0.035480939 0.09647651 0.28787234
-0.034945123 0.096619114 0.28829786
-0.034394898 0.096726075 0.28861701
-0.033830903 0.096797377 0.28882977
-0.033241555 0.096797377 0.28882977
-0.032628156 0.096726075 0.28861701
-0.032003812 0.096619114 0.28829786
-0.031392366 0.096547812 0.2880851
-0.030793162 0.096512154 0.28797871
-0.030216711 0.096547812 0.2880851
-0.029650765 0.096619114 0.28829786
-0.029105401 0.096761733 0.28872341
-0.028558297 0.096904337 0.28914893
-0.02799917 0.097011298 0.28946808
-0.02740852 0.097011298 0.28946808
-0.026778447 0.096868694 0.28904256
-0.026150109 0.096726075 0.28861701
-0.025542352 0.096654773 0.28840426
-0.024981488 0.096761733 0.28872341
-0.024419321 0.096868694 0.28904256
-0.023829538 0.096868694 0.28904256
-0.023137115 0.096440852 0.28776595
-0.022349864 0.095585182 0.28521276
-0.021475602 0.094301686 0.28138298
-0.020593261 0.092911229 0.27723405
-0.019766279 0.091699034 0.27361703
-0.019028738 0.090843365 0.27106383
-0.018374126 0.09034422 0.26957446
-0.017788898 0.090165958 0.26904255
-0.017253561 0.09023726 0.26925531
-0.016783353 0.090665102 0.27053192
-0.016397292 0.091592073 0.27329788
-0.016080098 0.092982531 0.27744681
-0.015781665 0.094586909 0.28223404
-0.015440769 0.096048668 0.28659573
-0.015010386 0.097046956 0.28957447
-0.014493681 0.097546086 0.29106382
-0.013925178 0.097724363 0.29159576
-0.013335049 0.097760007 0.29170212
-0.012735195 0.097724363 0.29159576
-0.012126917 0.097617403 0.2912766
-0.011524151 0.097546086 0.29106382
-0.010922256 0.097474784 0.29085106
-0.010332562 0.097510442 0.29095745
-0.0097353123 0.097474784 0.29085106
-0.0091351531 0.097403482 0.2906383
-0.0085233552 0.097189561 0.28999999
-0.0079112528 0.096939996 0.28925532
-0.0073021892 0.096690431 0.28851065
-0.0066961641 0.096440852 0.28776595
-0.0060954373 0.096226946 0.28712767
-0.005499356 0.096048668 0.28659573
-0.0049109184 0.095977366 0.28638297
-0.0043297778 0.096048668 0.28659573
-0.0037519396 0.096226946 0.28712767
-0.0031789686 0.096619114 0.28829786
-0.0026050464 0.097153917 0.28989363
-0.0020260895 0.097760007 0.29170212
-0.0014381869 0.098259151 0.29319149
-0.00084237754 0.098544374 0.29404256
-0.00024239354 0.098544374 0.29404256
0.00035681421 0.098330453 0.29340425
0.0009530707 0.098080888 0.29265958
0.0015479786 0.097938269 0.29223403
0.0021442724 0.097938269 0.29223403
0.0027435592 0.09804523 0.29255319
0.0033453633 0.098187849 0.29297873
0.0039474722 0.098294802 0.29329789
0.0045508826 0.098401755 0.29361701
0.0051537305 0.098473072 0.2938298
0.005755363 0.098508716 0.29393616
0.0063551301 0.098508716 0.29393616
0.0069548972 0.098508716 0.29393616
0.0075546638 0.098508716 0.29393616
0.0081573827 0.098544374 0.29404256
0.0087573668 0.098544374 0.29404256
0.0093641207 0.098615676 0.29425532
0.0099645387 0.098615676 0.29425532
0.010568777 0.098651335 0.29436171
0.011165376 0.098615676 0.29425532
0.011765794 0.098615676 0.29425532
0.012375153 0.098686978 0.29446808
0.012990069 0.098793939 0.29478723
0.013601382 0.098865241 0.29499999
0.014203319 0.098865241 0.29499999
0.014810597 0.098900899 0.29510638
0.01542942 0.09900786 0.29542553
0.016049545 0.09911482 0.29574469
0.016658992 0.099150464 0.29585105
0.017268874 0.099186122 0.29595745
0.017872766 0.099186122 0.29595745
0.018456733 0.099079162 0.29563829
0.01903254 0.098936558 0.29521278
0.019599533 0.098758288 0.29468086
0.020171648 0.098615676 0.29425532
0.020757046 0.098544374 0.29404256
0.021364756 0.098580018 0.29414892
0.021980846 0.098651335 0.29436171
0.022589641 0.098686978 0.29446808
0.023182116 0.098651335 0.29436171
0.023739778 0.098473072 0.2938298
0.024295265 0.098294802 0.29329789
0.024848582 0.098116532 0.29276595
0.025418224 0.098009579 0.29244682
0.025996024 0.097938269 0.29223403
0.026582638 0.097902626 0.29212767
0.027149022 0.097795665 0.29180852
0.027703987 0.097653046 0.29138297
0.028236557 0.09743914 0.29074469
0.02874542 0.097153917 0.28989363
0.029240046 0.096833035 0.28893617
0.04868006 0.089238986 0.2662766
0.049026731 0.088882461 0.26521277
0.049408827 0.088597238 0.26436171
0.049827646 0.088383317 0.2637234
0.05020323 0.088098094 0.26287234
0.050534271 0.087741569 0.26180851
0.050902475 0.087456346 0.26095745
0.051330108 0.087278083 0.26042554
0.051840313 0.087242424 0.26031914
0.052350085 0.087206781 0.26021278
0.052837797 0.087135464 0.25999999
0.05330281 0.087028511 0.25968084
0.053788573 0.086957201 0.25946808
0.054295741 0.086921558 0.25936171
0.05477998 0.086850248 0.25914893
0.05524065 0.086743288 0.25882977
0.055654176 0.086565025 0.25829786
0.056134947 0.086493716 0.2580851
0.056708273 0.086565025 0.25829786
0.05730604 0.086671978 0.25861701
0.057905111 0.086778939 0.25893617
0.058433462 0.086778939 0.25893617
0.058889139 0.086671978 0.25861701
0.059343513 0.086565025 0.25829786
0.059821244 0.086493716 0.2580851
0.060372736 0.086529374 0.2581915
0.060899567 0.086529374 0.2581915
0.061426401 0.086529374 0.2581915
0.061927702 0.086493716 0.2580851
0.062428575 0.086458072 0.25797874
0.06295497 0.086458072 0.25797874
0.063455187 0.086422414 0.25787234
0.063981369 0.086422414 0.25787234
0.064507551 0.086422414 0.25787234
0.065060563 0.086458072 0.25797874
0.065614 0.086493716 0.2580851
0.066195138 0.086565025 0.25829786
0.066777155 0.086636335 0.25851065
0.067387722 0.086743288 0.25882977
0.067971691 0.086814597 0.25904256
0.068556517 0.086885899 0.25925532
0.069227263 0.087064162 0.25978723
0.069985874 0.087349385 0.2606383
0.070805527 0.08770591 0.26170212
0.071571514 0.087991133 0.26255319
0.072253332 0.088169396 0.2630851
0.07287845 0.088276356 0.26340425
0.073564172 0.088454619 0.26393616
0.074281938 0.08866854 0.26457447
0.10748184 0.098294802 0.29329789
0.10843311 0.098615676 0.29425532
0.10915179 0.098722637 0.29457447
0.1097925 0.098758288 0.29468086
0.11043363 0.098793939 0.29478723
0.11123548 0.098972201 0.29531914
0.11207981 0.099186122 0.29595745
0.11288621 0.099364385 0.29648936
0.11361336 0.099471346 0.29680851
0.11425993 0.099506997 0.29691491
0.11482462 0.099471346 0.29680851
0.11538886 0.099435687 0.29670212
0.1159111 0.099364385 0.29648936
0.11647428 0.099328734 0.29638299
0.11707903 0.099328734 0.29638299
0.1176838 0.099328734 0.29638299
0.11833101 0.099364385 0.29648936
0.11893598 0.099364385 0.29648936
0.11954096 0.099364385 0.29648936
0.12010283 0.099328734 0.29638299
0.12070759 0.099328734 0.29638299
0.12131235 0.099328734 0.29638299
0.12196086 0.099364385 0.29648936
0.12260982 0.099400043 0.29659575
0.1232592 0.099435687 0.29670212
0.12390903 0.099471346 0.29680851
0.12455929 0.099506997 0.29691491
0.12525482 0.099578306 0.29712766
0.12595123 0.099649608 0.29734042
0.1266485 0.09972091 0.29755318
0.12730116 0.099756569 0.29765958
0.12799995 0.099827871 0.29787233
0.12865368 0.099863529 0.29797873
0.12926169 0.099863529 0.29797873
0.12973061 0.099756569 0.29765958
0.13019823 0.099649608 0.29734042
0.13066453 0.099542648 0.29702127
0.1312706 0.099542648 0.29702127
0.13201836 0.099649608 0.29734042
0.13286233 0.099827871 0.29787233
0.13366081 0.099970482 0.29829788
0.13436523 0.10004179 0.29851064
0.13502245 0.10007744 0.29861704
0.13563177 0.10007744 0.29861704
0.13619255 0.10004179 0.29851064
0.1368504 0.10007744 0.29861704
0.13750868 0.10011309 0.2987234
0.13816741 0.10014875 0.29882979
0.13867836 0.10007744 0.29861704
0.13908918 0.099934831 0.29819149
0.13949828 0.09979222 0.29776597
0.14005581 0.099756569 0.29765958
0.14071344 0.09979222 0.29776597
0.14152297 0.099934831 0.29819149
0.14233427 0.10007744 0.29861704
0.14309634 0.1001844 0.29893616
0.14375746 0.10022005 0.29904255
0.14431629 0.1001844 0.29893616
0.14492625 0.1001844 0.29893616
0.14553621 0.1001844 0.29893616
0.14614619 0.1001844 0.29893616
0.14675616 0.1001844 0.29893616
0.14726125 0.10011309 0.2987234
0.1477128 0.10000613 0.29840425
0.14816304 0.099899173 0.29808509
0.14871819 0.099863529 0.29797873
0.14937951 0.099899173 0.29808509
0.15020186 0.10004179 0.29851064
0.1510797 0.10022005 0.29904255
0.1517978 0.10029136 0.29925531
0.1524626 0.10032701 0.29936171
0.15307344 0.10032701 0.29936171
0.15379351 0.10039832 0.29957446
0.1546241 0.10054093 0.30000001
0.1555115 0.10071919 0.30053192
0.15634577 0.1008618 0.30095744
0.15712631 0.10096876 0.30127659
0.15774105 0.10096876 0.30127659
0.15829988 0.1009331 0.3011702
0.15874602 0.10082615 0.30085108
0.15924719 0.10075484 0.30063829
0.15991721 0.1007905 0.30074468
0.16081478 0.10096876 0.30127659
0.16171454 0.10114703 0.30180851
0.16250202 0.10125399 0.30212766
0.16306107 0.10121833 0.30202127
0.16356203 0.10114703 0.30180851
0.16406211 0.10107572 0.30159575
0.16467752 0.10107572 0.30159575
0.16535123 0.10111137 0.30170214
0.16602534 0.10114703 0.30180851
0.16664118 0.10114703 0.30180851
0.16719806 0.10111137 0.30170214
0.1677545 0.10107572 0.30159575
0.16831049 0.10104007 0.30148935
0.16880646 0.10096876 0.30127659
0.16930157 0.10089746 0.30106384
0.16991587 0.10089746 0.30106384
0.17083147 0.10107572 0.30159575
0.17180973 0.10128964 0.30223405
0.17272988 0.1014679 0.30276597
0.17346948 0.10153921 0.30297872
0.1740877 0.10153921 0.30297872
0.17464457 0.10150355 0.30287233
0.17507789 0.10139659 0.30255318
0.17544813 0.10125399 0.30212766
0.17569265 0.10104007 0.30148935
0.17605898 0.10089746 0.30106384
0.17654844 0.10082615 0.30085108
0.17709966 0.1007905 0.30074468
0.17783904 0.1008618 0.30095744
0.1567149 0.087670267 0.26159576
0.15705684 0.087563306 0.2612766
0.15720497 0.087349385 0.2606383
0.1573505 0.087135464 0.25999999
0.15749343 0.086921558 0.25936171
0.15769854 0.086743288 0.25882977
0.15790151 0.086565025 0.25829786
0.15842856 0.086565025 0.25829786
0.1594139 0.086814597 0.25904256
0.16132185 0.087563306 0.2612766
0.16435923 0.088918105 0.26531914
-0.16179472 0.086410552 0.25627661
-0.16120484 0.086374678 0.25617021
-0.16054869 0.086302936 0.25595745
-0.1599599 0.086267069 0.25585106
-0.15937157 0.086231202 0.2557447
-0.15878364 0.086195327 0.2556383
-0.15826201 0.086195327 0.2556383
-0.15767474 0.086159453 0.25553191
-0.15702249 0.086087719 0.25531915
-0.15643631 0.086051844 0.25521275
-0.15585057 0.086015977 0.25510639
-0.15526526 0.085980102 0.255
-0.15468039 0.085944243 0.25489363
-0.15416029 0.085944243 0.25489363
-0.15376844 0.086015977 0.25510639
-0.15343961 0.086123593 0.25542554
-0.15310951 0.086231202 0.2557447
-0.15277806 0.086338803 0.25606382
-0.15244535 0.086446412 0.25638297
-0.15204827 0.086518154 0.25659573
-0.15171316 0.086625762 0.25691488
-0.15137675 0.086733371 0.25723404
-0.15085188 0.086733371 0.25723404
-0.15038918 0.086769246 0.25734043
-0.14998798 0.086840987 0.25755319
-0.14964767 0.086948596 0.25787234
-0.14930604 0.087056205 0.2581915
-0.14896312 0.087163821 0.25851065
-0.14849672 0.087199681 0.25861701
-0.14802988 0.087235555 0.25872341
-0.14762327 0.087307289 0.25893617
-0.14709492 0.087307289 0.25893617
-0.14650634 0.087271415 0.25882977
-0.14591822 0.087235555 0.25872341
-0.1453903 0.087235555 0.25872341
-0.14492194 0.087271415 0.25882977
-0.14457186 0.087379031 0.25914893
-0.1442796 0.087522514 0.25957447
-0.14404452 0.087701865 0.26010638
-0.14368987 0.087809473 0.26042554
-0.14327544 0.087881207 0.2606383
-0.14262709 0.087809473 0.26042554
-0.14186351 0.08766599 0.25999999
-0.14110169 0.087522514 0.25957447
-0.14039919 0.087414905 0.25925532
-0.1398128 0.087379031 0.25914893
-0.13939838 0.08745078 0.25936171
-0.13904002 0.087558381 0.25968084
-0.13873713 0.087701865 0.26010638
-0.13843249 0.08784534 0.2605319
-0.13812613 0.087988824 0.26095745
-0.13764976 0.088024698 0.26106384
-0.13706118 0.087988824 0.26095745
-0.13658437 0.088024698 0.26106384
-0.13616255 0.088096432 0.2612766
-0.13573988 0.088168167 0.26148936
-0.13526133 0.088204041 0.26159576
-0.13478233 0.088239908 0.26170212
-0.13424833 0.088239908 0.26170212
-0.13371433 0.088239908 0.26170212
-0.13318035 0.088239908 0.26170212
-0.13264635 0.088239908 0.26170212
-0.13216606 0.088275783 0.26180851
-0.13173883 0.088347517 0.26202127
-0.13125746 0.088383391 0.26212767
-0.1307226 0.088383391 0.26212767
-0.13024056 0.088419259 0.26223403
-0.1297581 0.088455133 0.26234043
-0.12922281 0.088455133 0.26234043
-0.1287397 0.088491 0.26244682
-0.12825614 0.088526867 0.26255319
-0.1278239 0.088598602 0.26276594
-0.12744235 0.088706218 0.2630851
-0.12695685 0.088742092 0.26319149
-0.12641981 0.088742092 0.26319149
-0.12578103 0.088670351 0.26297873
-0.12519376 0.088634476 0.26287234
-0.12460691 0.088598602 0.26276594
-0.12422144 0.088706218 0.2630851
-0.12388469 0.088849701 0.26351064
-0.12359599 0.089029051 0.26404256
-0.12330512 0.089208394 0.26457447
-0.12286399 0.089280136 0.26478723
-0.12237285 0.08931601 0.26489362
-0.12183234 0.08931601 0.26489362
-0.12129184 0.08931601 0.26489362
-0.12079982 0.08935187 0.26499999
-0.12040392 0.089459486 0.26531914
-0.12000673 0.089567095 0.26563829
-0.11960824 0.089674704 0.26595744
-0.11925607 0.089818187 0.26638299
-0.11899698 0.090033405 0.26702127
-0.11868808 0.090212747 0.26755318
-0.11837702 0.090392098 0.26808509
-0.11797028 0.090499707 0.26840425
-0.11737608 0.090463847 0.26829788
-0.11673597 0.090392098 0.26808509
-0.11609674 0.090320364 0.26787233
-0.11555015 0.090320364 0.26787233
-0.11504925 0.090356238 0.26797873
-0.11454789 0.090392098 0.26808509
-0.11400088 0.090392098 0.26808509
-0.11336382 0.090320364 0.26787233
-0.11277243 0.090284497 0.26776597
-0.11218148 0.090248622 0.26765957
-0.11163533 0.090248622 0.26765957
-0.11117748 0.090320364 0.26787233
-0.11067484 0.090356238 0.26797873
-0.11021547 0.090427972 0.26819149
-0.10975523 0.090499707 0.26840425
-0.10925085 0.090535581 0.26851064
-0.10874604 0.090571456 0.26861703
-0.10824078 0.090607323 0.2687234
-0.1077351 0.090643197 0.26882979
-0.10722896 0.090679057 0.26893616
-0.10672241 0.090714931 0.26904255
-0.10617344 0.090714931 0.26904255
-0.10566624 0.090750806 0.26914895
-0.10528324 0.090894282 0.26957446
-0.10498117 0.091109499 0.27021277
-0.10463538 0.09128885 0.27074468
-0.10416473 0.091360584 0.27095744
-0.10365253 0.091396458 0.27106383
-0.10318036 0.0914682 0.27127659
-0.10282806 0.09164755 0.27180851
-0.10239352 0.091755159 0.27212766
-0.10183826 0.091755159 0.27212766
-0.10124339 0.091719285 0.27202126
-0.10064897 0.091683418 0.2719149
-0.10009414 0.091683418 0.2719149
-0.099578239 0.091719285 0.27202126
-0.099061921 0.091755159 0.27212766
-0.098506652 0.091755159 0.27212766
-0.097913094 0.091719285 0.27202126
-0.097281896 0.09164755 0.27180851
-0.096765138 0.091683418 0.2719149
-0.096285582 0.091755159 0.27212766
-0.095917434 0.09193451 0.27265957
-0.095584325 0.092149727 0.27329788
-0.095174626 0.092293203 0.27372339
-0.094689652 0.092364952 0.27393618
-0.094130695 0.092364952 0.27393618
-0.093499057 0.092293203 0.27372339
-0.092868291 0.092221469 0.27351063
-0.092238396 0.092149727 0.27329788
-0.091573678 0.092042118 0.27297872
-0.091016673 0.092042118 0.27297872
-0.090565428 0.092149727 0.27329788
-0.090112887 0.092257343 0.27361703
-0.089659035 0.092364952 0.27393618
-0.089134678 0.092400812 0.27404255
-0.08854112 0.092364952 0.27393618
-0.087913819 0.092293203 0.27372339
-0.087321356 0.092257343 0.27361703
-0.086796775 0.092293203 0.27372339
-0.08630529 0.092364952 0.27393618
-0.085846223 0.092472553 0.27425531
-0.085319698 0.092508428 0.2743617
-0.084759876 0.092508428 0.2743617
-0.084134758 0.092436686 0.27414894
-0.08357536 0.092436686 0.27414894
-0.08304818 0.092472553 0.27425531
-0.082552575 0.092544302 0.27446809
-0.08205609 0.092616037 0.27468085
-0.081527174 0.092651911 0.27478725
-0.080935135 0.092616037 0.27468085
-0.080312401 0.092544302 0.27446809
-0.079721443 0.092508428 0.2743617
-0.079161614 0.092508428 0.2743617
-0.078632273 0.092544302 0.27446809
-0.078102484 0.092580162 0.27457446
-0.077572271 0.092616037 0.27468085
-0.077041626 0.092651911 0.27478725
-0.076510534 0.092687771 0.27489361
-0.075949624 0.092687771 0.27489361
-0.075388707 0.092687771 0.27489361
-0.074885711 0.092759512 0.27510637
-0.074410595 0.092867121 0.27542552
-0.073934168 0.09297473 0.27574468
-0.073456444 0.093082346 0.27606383
-0.072865054 0.093046471 0.27595744
-0.072274104 0.093010604 0.27585107
-0.071655929 0.09293887 0.27563831
-0.0710935 0.09293887 0.27563831
-0.07055828 0.09297473 0.27574468
-0.070049644 0.093046471 0.27595744
-0.06956692 0.09315408 0.27627659
-0.069136038 0.093333431 0.2768085
-0.068676643 0.093476914 0.27723405
-0.06818936 0.093584523 0.2775532
-0.067597106 0.093548656 0.27744681
-0.06697958 0.093476914 0.27723405
-0.066362925 0.09340518 0.27702129
-0.065797672 0.09340518 0.27702129
-0.065257467 0.093441039 0.27712765
-0.064691998 0.093441039 0.27712765
-0.064151146 0.093476914 0.27723405
-0.063634254 0.093548656 0.27744681
-0.063164867 0.093692139 0.27787235
-0.062717706 0.093871482 0.27840427
-0.062268373 0.094050832 0.27893618
-0.061793335 0.094194308 0.2793617
-0.061293252 0.094301917 0.27968085
-0.060768764 0.094373658 0.27989361
-0.060220532 0.094409533 0.28
-0.059671868 0.094445407 0.2801064
-0.059122764 0.094481267 0.28021276
-0.058595456 0.094553001 0.28042552
-0.058089294 0.094660617 0.28074467
-0.057581827 0.094768226 0.28106382
-0.057137795 0.094983451 0.28170213
-0.056691155 0.095198669 0.28234044
-0.056199621 0.095342144 0.28276595
-0.055643573 0.095378019 0.28287235
-0.055045672 0.095342144 0.28276595
-0.054448202 0.09530627 0.28265956
-0.053851172 0.09527041 0.2825532
-0.053254575 0.095234536 0.2824468
-0.052618727 0.095126927 0.28212765
-0.051984187 0.095019326 0.28180853
-0.051389758 0.094983451 0.28170213
-0.050853331 0.095055185 0.28191489
-0.050316039 0.095126927 0.28212765
-0.049759123 0.095162794 0.28223404
-0.049164694 0.095126927 0.28212765
-0.048570704 0.09509106 0.28202128
-0.047995247 0.09509106 0.28202128
-0.047491342 0.095234536 0.2824468
-0.046985701 0.095378019 0.28287235
-0.046460871 0.095485628 0.2831915
-0.045900263 0.095521495 0.28329787
-0.04535624 0.095593229 0.28351063
-0.044794548 0.095629103 0.28361702
-0.044249006 0.095700845 0.28382978
-0.043702602 0.095772587 0.28404257
-0.043155324 0.095844328 0.28425533
-0.042607177 0.095916063 0.28446808
-0.042042445 0.095951937 0.28457448
-0.041477278 0.095987804 0.28468084
-0.040911682 0.096023679 0.28478724
-0.040360712 0.096095413 0.285
-0.039794032 0.096131288 0.28510639
-0.039212279 0.096131288 0.28510639
-0.038644943 0.096167147 0.28521276
-0.038062975 0.096167147 0.28521276
-0.037494991 0.096203022 0.28531915
-0.036940333 0.096274763 0.28553191
-0.036371261 0.096310638 0.2856383
-0.035815082 0.096382372 0.28585106
-0.035258036 0.096454106 0.28606382
-0.034725912 0.096597597 0.28648937
-0.034192052 0.096741073 0.28691489
-0.033643994 0.096848682 0.28723404
-0.033045661 0.096812814 0.28712767
-0.032447759 0.09677694 0.28702128
-0.031826671 0.096669331 0.28670213
-0.031230072 0.096633457 0.28659573
-0.030645283 0.096633457 0.28659573
-0.030071653 0.096669331 0.28670213
-0.02949759 0.096705206 0.28680852
-0.028944539 0.096812814 0.28712767
-0.028400691 0.09695629 0.28755319
-0.027855108 0.097099766 0.28797871
-0.027257426 0.097063899 0.28787234
-0.026640464 0.09695629 0.28755319
-0.026015168 0.096812814 0.28712767
-0.025410447 0.096741073 0.28691489
-0.024852622 0.096848682 0.28723404
-0.024293493 0.09695629 0.28755319
-0.023680439 0.096848682 0.28723404
-0.022983152 0.096382372 0.28585106
-0.022191474 0.095485628 0.2831915
-0.021329455 0.094230182 0.27946809
-0.020466827 0.092902996 0.27553192
-0.019666372 0.091791034 0.27223405
-0.018961525 0.091073625 0.27010638
-0.018330619 0.090679057 0.26893616
-0.01775373 0.090535581 0.26851064
-0.017233109 0.090679057 0.26893616
-0.016776752 0.091181241 0.27042553
-0.016397292 0.092149727 0.27329788
-0.016080098 0.093548656 0.27744681
-0.015775716 0.095126927 0.28212765
-0.015417843 0.096489981 0.28617021
-0.014977299 0.0974226 0.28893617
-0.014451304 0.097853042 0.29021278
-0.013879455 0.097996518 0.2906383
-0.013286417 0.097996518 0.2906383
-0.012684087 0.097924784 0.29042554
-0.012087055 0.097888909 0.29031914
-0.011490457 0.097853042 0.29021278
-0.010902281 0.097888909 0.29031914
-0.01031745 0.097960643 0.2905319
-0.0097281905 0.097996518 0.2906383
-0.0091318088 0.097960643 0.2905319
-0.0085296091 0.097853042 0.29021278
-0.007925801 0.097709559 0.28978723
-0.0073237298 0.097566083 0.28936172
-0.0067233946 0.0974226 0.28893617
-0.0061247968 0.097279124 0.28851065
-0.0055340589 0.097243249 0.28840426
-0.0049474039 0.097279124 0.28851065
-0.0043635289 0.097386725 0.28882977
-0.0037797419 0.097530209 0.28925532
-0.0031977375 0.097781293 0.28999999
-0.0026136499 0.098068252 0.29085106
-0.0020268285 0.098391086 0.29180852
-0.0014350557 0.098642178 0.29255319
-0.00083963457 0.098821521 0.2930851
-0.00024151658 0.098785661 0.29297873
0.00035577922 0.098642178 0.29255319
0.00095064548 0.098426953 0.29191488
0.0015440341 0.098283477 0.29148936
0.0021388084 0.098283477 0.29148936
0.002735578 0.098355211 0.29170212
0.0033344305 0.098462828 0.29202127
0.0039360174 0.098606311 0.29244682
0.0045376918 0.098713912 0.29276595
0.0051388033 0.098785661 0.29297873
0.0057345331 0.098749787 0.29287234
0.0063298289 0.098713912 0.29276595
0.0069221742 0.098642178 0.29255319
0.007519119 0.098642178 0.29255319
0.008119016 0.098678045 0.29265958
0.0087225139 0.098749787 0.29287234
0.0093302671 0.098857395 0.29319149
0.0099393222 0.098965004 0.29351065
0.01054204 0.099000871 0.29361701
0.011133082 0.098929137 0.29340425
0.011731763 0.098929137 0.29340425
0.012334917 0.098965004 0.29351065
0.012947879 0.09907262 0.2938298
0.013552333 0.09910848 0.29393616
0.014157223 0.099144354 0.29404256
0.014767884 0.099216096 0.29425532
0.015384971 0.099323705 0.29457447
0.016003361 0.099431314 0.29489362
0.016623052 0.09953893 0.29521278
0.017244047 0.099646538 0.29553193
0.017859917 0.099718273 0.29574469
0.018463375 0.099718273 0.29574469
0.019053115 0.099646538 0.29553193
0.01963491 0.09953893 0.29521278
0.020222696 0.099467181 0.29499999
0.020809615 0.099395439 0.29478723
0.021403393 0.099359579 0.29468086
0.022020565 0.099431314 0.29489362
0.022638608 0.099503055 0.29510638
0.023240762 0.099503055 0.29510638
0.023834322 0.099467181 0.29499999
0.024409825 0.099359579 0.29468086
0.024984023 0.099251963 0.29436171
0.025556918 0.099144354 0.29404256
0.026147438 0.09910848 0.29393616
0.026756886 0.099144354 0.29404256
0.027366767 0.099180222 0.29414892
0.027977083 0.099216096 0.29425532
0.028567169 0.099180222 0.29414892
0.029135726 0.09907262 0.2938298
0.02969221 0.098929137 0.29340425
0.030246962 0.098785661 0.29297873
0.030788776 0.098606311 0.29244682
0.031328414 0.098426953 0.29191488
0.031865887 0.098247603 0.29138297
0.032377489 0.097996518 0.2906383
0.032898113 0.097781293 0.28999999
0.033440709 0.097637825 0.28957447
0.034006573 0.097566083 0.28936172
0.034597006 0.097566083 0.28936172
0.0351745 0.097530209 0.28925532
0.035751563 0.097494334 0.28914893
0.036314819 0.0974226 0.28893617
0.036877211 0.097350858 0.28872341
0.03746634 0.097350858 0.28872341
0.052168839 0.089244269 0.26468086
0.052539427 0.08895731 0.2638298
0.052970752 0.088777959 0.26329789
0.053378284 0.088562742 0.26265958
0.053761374 0.088311642 0.26191488
0.054185536 0.088132299 0.26138297
0.054674339 0.088060558 0.26117021
0.055139784 0.087952949 0.26085106
0.055558518 0.087773599 0.26031914
0.05592924 0.087522514 0.25957447
0.05632006 0.087307289 0.25893617
0.056801699 0.087235555 0.25872341
0.057376761 0.087307289 0.25893617
0.058000274 0.08745078 0.25936171
0.058553495 0.08748664 0.25946808
0.058986038 0.087343164 0.25904256
0.0593924 0.087163821 0.25851065
0.059845906 0.087056205 0.2581915
0.060372736 0.087056205 0.2581915
0.060924657 0.087092072 0.25829786
0.061477017 0.087127946 0.25840425
0.061953232 0.087056205 0.2581915
0.062428575 0.08698447 0.25797874
0.062903047 0.086912721 0.25776595
0.063402839 0.086876854 0.25765958
0.063928582 0.086876854 0.25765958
0.064454325 0.086876854 0.25765958
0.065006897 0.086912721 0.25776595
0.065559909 0.086948596 0.25787234
0.066113353 0.08698447 0.25797874
0.066694714 0.087056205 0.2581915
0.067221545 0.087056205 0.2581915
0.067776285 0.087092072 0.25829786
0.068303332 0.087092072 0.25829786
0.068887085 0.087163821 0.25851065
0.069557391 0.087343164 0.25904256
0.070258647 0.087558381 0.25968084
0.070933528 0.087737739 0.26021278
0.071493693 0.087773599 0.26031914
0.071995437 0.087737739 0.26021278
0.072496742 0.087701865 0.26010638
0.073057346 0.087737739 0.26021278
0.073708639 0.087881207 0.2606383
0.074361674 0.088024698 0.26106384
0.075016439 0.088168167 0.26148936
0.075642213 0.088275783 0.26180851
0.076176427 0.088275783 0.26180851
0.076679461 0.088239908 0.26170212
0.07715068 0.088168167 0.26148936
0.077715851 0.088204041 0.26159576
0.078376912 0.088347517 0.26202127
0.078975633 0.088419259 0.26223403
0.079478465 0.088383391 0.26212767
0.079721063 0.088060558 0.26117021
0.080384739 0.088204041 0.26159576
0.081412122 0.088742092 0.26319149
0.11114451 0.098426953 0.29191488
0.11210666 0.098749787 0.29287234
0.11290894 0.098929137 0.29340425
0.11358994 0.099000871 0.29361701
0.11414769 0.098965004 0.29351065
0.11478817 0.099000871 0.29361701
0.1154291 0.099036746 0.2937234
0.1161545 0.099144354 0.29404256
0.11692344 0.09928783 0.29446808
0.11760923 0.099359579 0.29468086
0.11825318 0.099395439 0.29478723
0.11889758 0.099431314 0.29489362
0.1195424 0.099467181 0.29499999
0.12014434 0.099467181 0.29499999
0.12078983 0.099503055 0.29510638
0.1214795 0.099574789 0.29531914
0.12217005 0.099646538 0.29553193
0.12286146 0.099718273 0.29574469
0.12359815 0.099825889 0.29606384
0.12424688 0.099861749 0.2961702
0.12494091 0.099933498 0.29638299
0.12563579 0.10000523 0.29659575
0.12633154 0.10007697 0.29680851
0.12702817 0.10014871 0.29702127
0.12772565 0.10022045 0.29723403
0.12837808 0.10025632 0.29734042
0.12893865 0.10022045 0.29723403
0.12940605 0.10011285 0.29691491
0.12987214 0.10000523 0.29659575
0.13038374 0.099933498 0.29638299
0.13108253 0.10000523 0.29659575
0.13182943 0.10011285 0.29691491
0.13262507 0.10025632 0.29734042
0.1333748 0.10036393 0.29765958
0.13407792 0.10043567 0.29787233
0.13473383 0.10047154 0.29797873
0.13534185 0.10047154 0.29797873
0.13590132 0.10043567 0.29787233
0.13646038 0.10039981 0.29776597
0.13706796 0.10039981 0.29776597
0.13772471 0.10043567 0.29787233
0.13828312 0.10039981 0.29776597
0.13874184 0.10029219 0.29744682
0.13919924 0.10018458 0.29712766
0.13970542 0.10011285 0.29691491
0.14031126 0.10011285 0.29691491
0.14101808 0.10018458 0.29712766
0.14177649 0.10029219 0.29744682
0.14248526 0.10036393 0.29765958
0.14309262 0.10036393 0.29765958
0.14364862 0.10032806 0.29755318
0.14425577 0.10032806 0.29755318
0.14491472 0.10036393 0.29765958
0.14557409 0.10039981 0.29776597
0.1462339 0.10043567 0.29787233
0.14684169 0.10043567 0.29787233
0.14734417 0.10036393 0.29765958
0.14779291 0.10025632 0.29734042
0.14829344 0.10018458 0.29712766
0.1488997 0.10018458 0.29712766
0.1497201 0.10032806 0.29755318
0.15054223 0.10047154 0.29797873
0.15125817 0.10054328 0.29819149
0.15186663 0.10054328 0.29819149
0.15252948 0.10057915 0.29829788
0.15324737 0.10065089 0.29851064
0.15418546 0.10086611 0.29914895
0.15512614 0.10108133 0.29978722
0.15601417 0.10126067 0.30031914
0.15673794 0.10133242 0.30053192
0.15729547 0.10129654 0.30042553
0.15768482 0.10115307 0.30000001
0.15807241 0.10100958 0.29957446
0.15851462 0.10090198 0.29925531
0.15912525 0.10090198 0.29925531
0.16001979 0.10108133 0.29978722
0.1609735 0.10129654 0.30042553
0.16175818 0.10140416 0.30074468
0.16237184 0.10140416 0.30074468
0.16281253 0.10129654 0.30042553
0.16330981 0.10122481 0.30021277
0.16392238 0.10122481 0.30021277
0.16459325 0.10126067 0.30031914
0.16532309 0.10133242 0.30053192
0.16593632 0.10133242 0.30053192
0.16654955 0.10133242 0.30053192
0.16710359 0.10129654 0.30042553
0.16765721 0.10126067 0.30031914
0.16809119 0.10115307 0.30000001
0.16852386 0.10104546 0.29968086
0.1690753 0.10100958 0.29957446
0.16986735 0.1011172 0.29989362
0.17072116 0.10126067 0.30031914
0.17157672 0.10140416 0.30074468
0.1723122 0.10147589 0.30095744
0.17298743 0.10151177 0.30106384
0.1735404 0.10147589 0.30095744
0.17403136 0.10140416 0.30074468
0.1744597 0.10129654 0.30042553
0.17482473 0.10115307 0.30000001
0.17531243 0.10108133 0.29978722
0.17579928 0.10100958 0.29957446
0.17634791 0.10097371 0.29946807
0.17702183 0.10100958 0.29957446
0.15645997 0.088060558 0.26117021
0.15680103 0.087952949 0.26085106
0.15707664 0.087809473 0.26042554
0.15728612 0.087630123 0.25989363
0.15749343 0.08745078 0.25936171
0.15776338 0.087307289 0.25893617
0.1580316 0.087163821 0.25851065
0.15862432 0.087199681 0.25861701
0.15967576 0.08748664 0.25946808
0.16197869 0.088455133 0.26234043
-0.16085444 0.086428255 0.25478724
-0.16026761 0.086392164 0.25468084
-0.15968123 0.086356081 0.25457448
-0.15909526 0.08631999 0.25446808
-0.15850972 0.0862839 0.25436169
-0.15799071 0.0862839 0.25436169
-0.15740584 0.086247817 0.25425532
-0.15688704 0.086247817 0.25425532
-0.15636824 0.086247817 0.25425532
-0.15578422 0.086211726 0.25414893
-0.15520066 0.08617565 0.25404257
-0.15455273 0.086103469 0.25382978
-0.15390569 0.086031295 0.25361702
-0.15332384 0.085995205 0.25351062
-0.1528707 0.086031295 0.25361702
-0.15254492 0.08613956 0.25393617
-0.15228152 0.0862839 0.25436169
-0.1520164 0.086428255 0.25478724
-0.15162303 0.086500421 0.255
-0.15135486 0.086644776 0.25542554
-0.15102215 0.086753041 0.2557447
-0.15068811 0.08686129 0.25606382
-0.15022801 0.086897381 0.25617021
-0.14976747 0.086933471 0.25627661
-0.14936845 0.087005645 0.25648937
-0.14896856 0.087077819 0.25670213
-0.14862934 0.087186076 0.25702128
-0.14822748 0.08725825 0.25723404
-0.1477637 0.08729434 0.25734043
-0.14736034 0.087366514 0.25755319
-0.1469561 0.087438688 0.25776595
-0.14655103 0.087510869 0.25797874
-0.14602463 0.087510869 0.25797874
-0.14537822 0.087438688 0.25776595
-0.14479248 0.087402605 0.25765958
-0.14426674 0.087402605 0.25765958
-0.14380033 0.087438688 0.25776595
-0.14345177 0.087546945 0.2580851
-0.14316082 0.0876913 0.25851065
-0.14280941 0.087799549 0.25882977
-0.14239825 0.08787173 0.25904256
-0.14186968 0.08787173 0.25904256
-0.14122501 0.087799549 0.25882977
-0.1405234 0.0876913 0.25851065
-0.13988069 0.087619118 0.25829786
-0.13929625 0.087583035 0.2581915
-0.13882659 0.087619118 0.25829786
-0.13847043 0.087727383 0.25861701
-0.13811296 0.08783564 0.25893617
-0.13775419 0.087943904 0.25925532
-0.1373378 0.088016078 0.25946808
-0.13686445 0.088052168 0.25957447
-0.13633481 0.088052168 0.25957447
-0.13591647 0.088124342 0.25978723
-0.13549726 0.088196509 0.25999999
-0.1351324 0.088304773 0.26031914
-0.13465625 0.088340864 0.26042554
-0.13412486 0.088340864 0.26042554
-0.13359347 0.088340864 0.26042554
-0.13306208 0.088340864 0.26042554
-0.13258483 0.088376947 0.2605319
-0.13205321 0.088376947 0.2605319
-0.13157532 0.088413037 0.2606383
-0.13104349 0.088413037 0.2606383
-0.1304584 0.088376947 0.2605319
-0.12992679 0.088376947 0.2605319
-0.12939519 0.088376947 0.2605319
-0.12896882 0.088449128 0.26074469
-0.12854157 0.088521294 0.26095745
-0.12816566 0.088629559 0.2612766
-0.12778844 0.088737823 0.26159576
-0.12740991 0.088846073 0.26191488
-0.12703007 0.088954337 0.26223403
-0.12654632 0.088990428 0.26234043
-0.12601103 0.088990428 0.26234043
-0.12542483 0.088954337 0.26223403
-0.12478843 0.088882163 0.26202127
-0.12420333 0.088846073 0.26191488
-0.12376937 0.088918254 0.26212767
-0.12338456 0.089026518 0.26244682
-0.12309802 0.089206949 0.26297873
-0.12275974 0.089351296 0.26340425
-0.12232099 0.089423463 0.26361701
-0.12178309 0.089423463 0.26361701
-0.12119627 0.089387387 0.26351064
-0.12070729 0.089423463 0.26361701
-0.12026639 0.089495644 0.2638298
-0.11987288 0.089603908 0.26414895
-0.11952613 0.089748256 0.26457447
-0.11917765 0.089892596 0.26499999
-0.11882743 0.090036951 0.26542553
-0.11847547 0.090181291 0.26585105
-0.11812179 0.090325646 0.2662766
-0.11776635 0.090469986 0.26670212
-0.11731568 0.090542167 0.2669149
-0.11677105 0.090542167 0.2669149
-0.11613376 0.090469986 0.26670212
-0.11554346 0.090433903 0.26659575
-0.11495359 0.090397812 0.26648936
-0.11445551 0.090433903 0.26659575
-0.11395697 0.090469986 0.26670212
-0.11345802 0.090506077 0.26680851
-0.11286858 0.090469986 0.26670212
-0.11223478 0.090397812 0.26648936
-0.11164644 0.090361737 0.26638299
-0.11110289 0.090361737 0.26638299
-0.11055934 0.090361737 0.26638299
-0.11005973 0.090397812 0.26648936
-0.10955969 0.090433903 0.26659575
-0.10910271 0.090506077 0.26680851
-0.10864487 0.090578251 0.26702127
-0.10818616 0.090650432 0.26723406
-0.10772657 0.090722606 0.26744682
-0.10730876 0.090830863 0.26776597
-0.10684723 0.090903036 0.26797873
-0.10634261 0.090939119 0.26808509
-0.10575362 0.090903036 0.26797873
-0.10520682 0.090903036 0.26797873
-0.10474312 0.09097521 0.26819149
-0.10436121 0.091119558 0.26861703
-0.10397755 0.091263905 0.26904255
-0.10351037 0.091336071 0.26925531
-0.10300165 0.09137217 0.2693617
-0.10261387 0.09151651 0.26978722
-0.10222437 0.091660865 0.27021277
-0.10175306 0.091733031 0.27042553
-0.10124109 0.091769122 0.27053192
-0.10064948 0.091733031 0.27042553
-0.10009768 0.091733031 0.27042553
-0.099585056 0.091769122 0.27053192
-0.099110924 0.091841295 0.27074468
-0.098635927 0.091913469 0.27095744
-0.098044544 0.091877386 0.27085108
-0.097453587 0.091841295 0.27074468
-0.096824996 0.091769122 0.27053192
-0.096272983 0.091769122 0.27053192
-0.095758609 0.091805205 0.27063829
-0.095356077 0.09194956 0.27106383
-0.094951808 0.0920939 0.27148935
-0.094545804 0.092238255 0.2719149
-0.094101295 0.092346519 0.27223405
-0.093582354 0.092382595 0.27234042
-0.093026653 0.092382595 0.27234042
-0.092398711 0.092310429 0.27212766
-0.09177164 0.092238255 0.2719149
-0.091145433 0.092166081 0.27170214
-0.090591036 0.092166081 0.27170214
-0.090142384 0.092274338 0.27202126
-0.089692444 0.092382595 0.27234042
-0.08920639 0.092454776 0.27255321
-0.088650256 0.092454776 0.27255321
-0.088025339 0.092382595 0.27234042
-0.087401308 0.092310429 0.27212766
-0.086812086 0.092274338 0.27202126
-0.086324506 0.092346519 0.27223405
-0.085869573 0.092454776 0.27255321
-0.085413329 0.092563033 0.27287233
-0.084889628 0.092599124 0.27297872
-0.084299758 0.092563033 0.27287233
-0.083677679 0.092490859 0.27265957
-0.083121322 0.092490859 0.27265957
-0.082564972 0.092490859 0.27265957
-0.082072608 0.092563033 0.27287233
-0.081547603 0.092599124 0.27297872
-0.080990605 0.092599124 0.27297872
-0.080402248 0.092563033 0.27287233
-0.079783209 0.092490859 0.27265957
-0.079195946 0.092454776 0.27255321
-0.078639813 0.092454776 0.27255321
-0.078114152 0.092490859 0.27265957
-0.07764858 0.092599124 0.27297872
-0.077181704 0.092707381 0.27329788
-0.0766837 0.092779554 0.27351063
-0.076125614 0.092779554 0.27351063
-0.075538129 0.092743464 0.27340424
-0.074980259 0.092743464 0.27340424
-0.074451342 0.092779554 0.27351063
-0.073979482 0.092887819 0.27382979
-0.073506311 0.092996083 0.27414894
-0.072975226 0.093032159 0.27425531
-0.072387531 0.092996083 0.27414894
-0.071800262 0.092959993 0.27404255
-0.071185775 0.092887819 0.27382979
-0.070654482 0.092923909 0.27393618
-0.070122734 0.092959993 0.27404255
-0.069590569 0.092996083 0.27414894
-0.069084749 0.09306825 0.2743617
-0.068604641 0.093176514 0.27468085
-0.068149567 0.093320854 0.27510637
-0.067666635 0.093429118 0.27542552
-0.067130558 0.093465209 0.27553192
-0.06654264 0.093429118 0.27542552
-0.065980643 0.093429118 0.27542552
-0.065443918 0.093465209 0.27553192
-0.064931802 0.093537383 0.27574468
-0.064393997 0.093573473 0.27585107
-0.063880362 0.09364564 0.27606383
-0.063341461 0.09368173 0.27617022
-0.06285049 0.093789987 0.27648935
-0.062382188 0.093934342 0.27691489
-0.061912142 0.094078682 0.27734041
-0.061440367 0.094223037 0.27776596
-0.060896911 0.094259128 0.27787235
-0.060376115 0.094331294 0.27808511
-0.059854452 0.094403468 0.27829787
-0.05933192 0.094475642 0.27851063
-0.058830965 0.094583906 0.27882978
-0.058306478 0.094656073 0.27904254
-0.057803139 0.094764337 0.2793617
-0.057320293 0.094908692 0.27978724
-0.056878857 0.095125206 0.28042552
-0.056434825 0.095341727 0.28106382
-0.055945899 0.095486082 0.28148937
-0.055392455 0.095522165 0.28159574
-0.054797161 0.095486082 0.28148937
-0.054222792 0.095486082 0.28148937
-0.053648423 0.095486082 0.28148937
-0.053053994 0.095449992 0.28138298
-0.052440159 0.095377818 0.28117022
-0.051827192 0.095305644 0.28095746
-0.05121509 0.095233463 0.28074467
-0.050642241 0.095233463 0.28074467
-0.050069392 0.095233463 0.28074467
-0.049496539 0.095233463 0.28074467
-0.048886616 0.095161296 0.28053191
-0.048314199 0.095161296 0.28053191
-0.047741782 0.095161296 0.28053191
-0.04724092 0.095305644 0.28095746
-0.046738315 0.095449992 0.28138298
-0.046233978 0.095594347 0.28180853
-0.045693427 0.095666513 0.28202128
-0.045169033 0.095774777 0.28234044
-0.044609725 0.09581086 0.2824468
-0.044066571 0.095883027 0.28265956
-0.043506183 0.095919117 0.28276595
-0.042945363 0.095955208 0.28287235
-0.042384099 0.095991291 0.28297871
-0.041853841 0.096099555 0.28329787
-0.041306783 0.096171722 0.28351063
-0.040774137 0.096279986 0.28382978
-0.040210057 0.096316077 0.28393617
-0.039630696 0.096316077 0.28393617
-0.039022073 0.09624391 0.28372341
-0.038414311 0.096171722 0.28351063
-0.037807424 0.096099555 0.28329787
-0.037243348 0.096135646 0.28340426
-0.036678828 0.096171722 0.28351063
-0.036127429 0.09624391 0.28372341
-0.03556183 0.096279986 0.28382978
-0.035008911 0.096352167 0.28404257
-0.034480911 0.096496515 0.28446808
-0.033951171 0.096640855 0.2848936
-0.033407237 0.096749119 0.28521276
-0.032825273 0.096749119 0.28521276
-0.032231279 0.096713036 0.28510639
-0.031637717 0.096676946 0.285
-0.031067779 0.096713036 0.28510639
-0.030486029 0.096713036 0.28510639
-0.02990428 0.096713036 0.28510639
-0.029322529 0.096713036 0.28510639
-0.028751502 0.096749119 0.28521276
-0.028211564 0.096893467 0.2856383
-0.027649308 0.096965641 0.28585106
-0.027076112 0.097001731 0.28595746
-0.026463058 0.096893467 0.2856383
-0.025860947 0.096821301 0.28542554
-0.025287965 0.096857376 0.28553191
-0.02473296 0.096965641 0.28585106
-0.024176655 0.097073905 0.28617021
-0.02355765 0.09692955 0.28574467
-0.022854852 0.096424341 0.28425533
-0.022066427 0.095522165 0.28159574
-0.021223903 0.094331294 0.27808511
-0.020387804 0.09310434 0.27446809
-0.019597204 0.092021726 0.27127659
-0.01890178 0.091336071 0.26925531
-0.018279864 0.09097521 0.26819149
-0.017711526 0.090866946 0.26787233
-0.017199025 0.091047376 0.26840425
-0.016756952 0.091624774 0.27010638
-0.016390909 0.09267129 0.27319148
-0.016073933 0.094078682 0.27734041
