# .PCD v0.7 - Point Cloud Data file format
VERSION 0.7
FIELDS x y z
SIZE 4 4 4
TYPE F F F
COUNT 1 1 1
WIDTH 1446
HEIGHT 1
VIEWPOINT 0 0 0 1 0 0 0
POINTS 1446
DATA ascii
0.15851814 0.1219897 0.27393618
0.15895353 0.12189495 0.27372339
0.15932608 0.12175282 0.27340424
0.15988395 0.12175282 0.27340424
0.16050425 0.1218002 0.27351063
0.16118762 0.12189495 0.27372339
0.16174614 0.12189495 0.27372339
0.16224161 0.12184758 0.27361703
0.16273661 0.1218002 0.27351063
0.16316767 0.12170545 0.27329788
0.16359787 0.12161071 0.27308512
0.16409114 0.12156333 0.27297872
0.16471231 0.12161071 0.27308512
0.16520514 0.12156333 0.27297872
0.16563295 0.12146858 0.27276596
0.16593024 0.12127908 0.27234042
0.16629085 0.12113695 0.27202126
0.16691115 0.12118433 0.27212766
0.16766283 0.12132645 0.27244681
0.1684158 0.12146858 0.27276596
0.16910417 0.12156333 0.27297872
0.16966118 0.12156333 0.27297872
0.17015183 0.12151594 0.27287233
0.17044242 0.12132645 0.27244681
0.17066449 0.12108959 0.2719149
0.17088439 0.12085271 0.27138299
0.17123652 0.12071059 0.27106383
0.17185703 0.12075795 0.2711702
0.1726809 0.12094746 0.27159575
0.17337079 0.12104221 0.27180851
0.17378926 0.12094746 0.27159575
0.17400201 0.12071059 0.27106383
0.17407556 0.12037897 0.27031916
0.17442097 0.12023684 0.27000001
0.034879129 0.14267994 0.31893617
0.035423245 0.14225163 0.31797871
0.035963457 0.14182331 0.31702128
0.042463012 0.12649877 0.28276595
0.04312095 0.12673673 0.28329787
0.043731827 0.1268319 0.28351063
0.044243816 0.12664154 0.28308511
0.044703539 0.12630841 0.28234044
0.045126095 0.12588008 0.28138298
0.045527469 0.12540416 0.28031915
0.045907002 0.12488065 0.27914894
0.046299476 0.12440474 0.27808511
0.046723466 0.124024 0.27723405
0.047198422 0.12378605 0.27670214
0.047744658 0.12373845 0.27659574
0.048290461 0.12369085 0.27648935
0.048817035 0.12359567 0.27627659
0.049285695 0.12335771 0.27574468
0.049771421 0.12316735 0.27531916
0.050274853 0.12302458 0.27500001
0.050776981 0.1228818 0.27468085
0.051257923 0.12269142 0.27425531
0.051696938 0.12240589 0.27361703
0.052092709 0.12202515 0.27276596
0.052505538 0.121692 0.27202126
0.052956831 0.12145405 0.27148935
0.053468861 0.12135886 0.27127659
0.054022394 0.12135886 0.27127659
0.05453312 0.12126368 0.27106383
0.055021357 0.12112091 0.27074468
0.055464622 0.12088295 0.27021277
0.055905715 0.12064499 0.26968086
0.056344636 0.12040703 0.26914895
0.056803871 0.12021666 0.2687234
0.057261378 0.1200263 0.26829788
0.057740066 0.11988352 0.26797873
0.058240589 0.11978834 0.26776597
0.058763597 0.11974075 0.26765957
0.059286173 0.11969315 0.26755318
0.059832107 0.11969315 0.26755318
0.060378041 0.11969315 0.26755318
0.060923975 0.11969315 0.26755318
0.061445471 0.11964557 0.26744682
0.061917212 0.11950279 0.26712766
0.062337898 0.11926483 0.26659575
0.062781505 0.11907446 0.2661702
0.063273996 0.11897928 0.26595744
0.063842207 0.11902688 0.26606384
0.064410836 0.11907446 0.2661702
0.064979911 0.11912205 0.2662766
0.065523244 0.11912205 0.2662766
0.066013783 0.11902688 0.26606384
0.066476837 0.11888409 0.26574469
0.066938594 0.11874132 0.26542553
0.067453139 0.11869372 0.26531914
0.068103567 0.11888409 0.26574469
0.068755731 0.11907446 0.2661702
0.069326542 0.11912205 0.2662766
0.069646552 0.11874132 0.26542553
0.069850571 0.11817022 0.26414895
0.070446253 0.11826541 0.26436171
0.071528427 0.11916965 0.26638299
0.090892673 0.13059165 0.29191488
0.091855064 0.13111515 0.2930851
0.092520222 0.13121036 0.29329789
0.093017362 0.13106757 0.29297873
0.093649156 0.13111515 0.2930851
0.094247192 0.13111515 0.2930851
0.094810799 0.13106757 0.29297873
0.095373966 0.13101998 0.29287234
0.095971562 0.13101998 0.29287234
0.096463919 0.1308772 0.29255319
0.096849091 0.13059165 0.29191488
0.097267181 0.13035369 0.29138297
0.097754546 0.13021092 0.29106382
0.098420352 0.13030611 0.2912766
0.099159345 0.13049647 0.29170212
0.099900074 0.13068685 0.29212767
0.10060594 0.13082962 0.29244682
0.10116585 0.13078202 0.29234043
0.10157721 0.13054407 0.29180852
0.10198639 0.13030611 0.2912766
0.10246833 0.13016333 0.29095745
0.10302434 0.13011573 0.29085106
0.10357992 0.13006815 0.29074469
0.10409693 0.12997296 0.2905319
0.10453642 0.1297826 0.29010639
0.10497417 0.12959222 0.28968084
0.10537141 0.12935427 0.28914893
0.10584445 0.12921149 0.28882977
0.1063162 0.12906873 0.28851065
0.10682605 0.12897353 0.28829786
0.10737468 0.12892595 0.2881915
0.10792287 0.12887836 0.2880851
0.1085107 0.12887836 0.2880851
0.10901795 0.12878317 0.28787234
0.10952434 0.12868799 0.28765959
0.11002985 0.1285928 0.2874468
0.11045263 0.12840244 0.28702128
0.11091482 0.12825966 0.28670213
0.11133434 0.1280693 0.28627661
0.11175211 0.12787893 0.28585106
0.11225177 0.12778375 0.2856383
0.11291865 0.12787893 0.28585106
0.1135864 0.12797411 0.28606382
0.1141701 0.12797411 0.28606382
0.11466846 0.12787893 0.28585106
0.11508016 0.12768857 0.28542554
0.11553323 0.12754579 0.28510639
0.11602832 0.1274506 0.2848936
0.11652255 0.12735541 0.28468084
0.11697215 0.12721264 0.28436169
0.11746443 0.12711746 0.28414893
0.11791164 0.12697469 0.28382978
0.11831314 0.12678432 0.28340426
0.11871289 0.12659395 0.28297871
0.11915576 0.12645116 0.28265956
0.11959735 0.12630841 0.28234044
0.12008289 0.12621321 0.28212765
0.12056756 0.12611803 0.28191489
0.12100565 0.12597525 0.28159574
0.12139653 0.12578489 0.28117022
0.12178564 0.12559453 0.28074467
0.12226576 0.12549934 0.28053191
0.1227916 0.12545174 0.28042552
0.12336379 0.12545174 0.28042552
0.12379495 0.12530898 0.2801064
0.12417756 0.12511861 0.27968085
0.12465334 0.12502342 0.27946809
0.12522358 0.12502342 0.27946809
0.12584171 0.125071 0.27957445
0.12641217 0.125071 0.27957445
0.126886 0.12497583 0.2793617
0.12731041 0.12483305 0.27904254
0.12778229 0.12473787 0.27882978
0.12830226 0.12469029 0.27872342
0.12896937 0.12478547 0.27893618
0.12963733 0.12488065 0.27914894
0.13015729 0.12483305 0.27904254
0.13052733 0.12464269 0.27861702
0.13079549 0.12435714 0.27797872
0.13111134 0.12411918 0.27744681
0.13157649 0.124024 0.27723405
0.13214217 0.124024 0.27723405
0.1328097 0.12411918 0.27744681
0.13342696 0.12416678 0.2775532
0.13404466 0.12421436 0.27765957
0.13461122 0.12421436 0.27765957
0.13522957 0.12426196 0.27776596
0.13590035 0.12435714 0.27797872
0.13667648 0.12454751 0.27840427
0.13740188 0.12469029 0.27872342
0.13791794 0.12464269 0.27861702
0.13822207 0.12440474 0.27808511
0.13847092 0.12411918 0.27744681
0.13877048 0.12388123 0.27691489
0.13928197 0.12383363 0.2768085
0.13990055 0.12388123 0.27691489
0.14062747 0.124024 0.27723405
0.14130151 0.12411918 0.27744681
0.14197643 0.12421436 0.27765957
0.14243376 0.12411918 0.27744681
0.14272572 0.12388123 0.27691489
0.14307056 0.12369085 0.27648935
0.1435242 0.12359567 0.27627659
0.14408794 0.12359567 0.27627659
0.14465167 0.12359567 0.27627659
0.14504765 0.12345289 0.27595744
0.14533006 0.12321494 0.27542552
0.14566666 0.12302458 0.27500001
0.14611466 0.12292939 0.27478725
0.14667535 0.12292939 0.27478725
0.14717904 0.1228818 0.27468085
0.14762509 0.12278662 0.27446809
0.14812769 0.12273902 0.2743617
0.14868751 0.12273902 0.2743617
0.14930521 0.12278662 0.27446809
0.14992334 0.12283421 0.27457446
0.15030868 0.12269142 0.27425531
0.15057568 0.12245347 0.27372339
0.15089926 0.12226311 0.27329788
0.15139796 0.12221551 0.27319148
0.1519554 0.12221551 0.27319148
0.15257223 0.12226311 0.27329788
0.15307027 0.12221551 0.27319148
0.15350807 0.12212033 0.27297872
0.15394498 0.12202515 0.27276596
0.15450156 0.12202515 0.27276596
0.15511858 0.12207273 0.27287233
0.15567538 0.12207273 0.27287233
0.15617126 0.12202515 0.27276596
0.1566667 0.12197755 0.27265957
0.15716173 0.12192997 0.27255321
0.15759473 0.12183478 0.27234042
0.15796509 0.121692 0.27202126
0.15833417 0.12154923 0.27170214
0.15882635 0.12150164 0.27159575
0.15944298 0.12154923 0.27170214
0.16012266 0.12164441 0.2719149
0.16074035 0.121692 0.27202126
0.1612954 0.121692 0.27202126
0.16178715 0.12164441 0.2719149
0.16227847 0.12159682 0.27180851
0.16270563 0.12150164 0.27159575
0.1632598 0.12150164 0.27159575
0.16394232 0.12159682 0.27180851
0.16456132 0.12164441 0.2719149
0.16498697 0.12154923 0.27170214
0.16515246 0.12126368 0.27106383
0.16544542 0.12107331 0.27063829
0.16586713 0.12097812 0.27042553
0.16654986 0.12107331 0.27063829
0.16723348 0.1211685 0.27085108
0.16791794 0.12126368 0.27106383
0.16860327 0.12135886 0.27127659
0.16922314 0.12140646 0.27138299
0.16964377 0.12131126 0.2711702
0.16986324 0.12107331 0.27063829
0.17008053 0.12083535 0.27010638
0.17049727 0.12074017 0.26989362
0.17111541 0.12078777 0.27000001
0.17186925 0.12093055 0.27031916
0.17255653 0.12102573 0.27053192
0.17297241 0.12093055 0.27031916
0.17318252 0.12069257 0.26978722
0.17339048 0.12045462 0.26925531
0.17373371 0.12031184 0.26893616
0.041166037 0.14256579 0.31723404
0.047422703 0.12645423 0.28138298
0.047779102 0.12588052 0.2801064
0.048222106 0.12554586 0.2793617
0.048717815 0.12535463 0.27893618
0.049192987 0.12511559 0.27840427
0.049665987 0.12487654 0.27787235
0.050136816 0.12463749 0.27734041
0.050605476 0.12439845 0.2768085
0.051091634 0.12420722 0.27638298
0.051536288 0.12392036 0.27574468
0.051938135 0.12353789 0.27489361
0.052316196 0.12310762 0.27393618
0.052710883 0.12272515 0.27308512
0.053185094 0.12253391 0.27265957
0.053678542 0.12239048 0.27234042
0.054191876 0.12229487 0.27212766
0.054682937 0.12215143 0.27180851
0.055129454 0.12191239 0.27127659
0.055573802 0.12167335 0.27074468
0.056015983 0.12143431 0.27021277
0.056455988 0.12119526 0.26968086
0.056893826 0.12095622 0.26914895
0.057329495 0.12071718 0.26861703
0.05776298 0.12047812 0.26808509
0.058240589 0.12033471 0.26776597
0.058763597 0.1202869 0.26765957
0.059286173 0.12023908 0.26755318
0.059784528 0.12014347 0.26734042
0.060306024 0.12009567 0.26723406
0.060802855 0.12000004 0.26702127
0.061274376 0.11985661 0.26670212
0.061695281 0.11961757 0.2661702
0.062114015 0.11937853 0.26563829
0.062555678 0.1191873 0.26521277
0.063071519 0.11913949 0.26510638
0.063612461 0.11913949 0.26510638
0.064153403 0.11913949 0.26510638
0.06466838 0.11909167 0.26499999
0.065182932 0.11904387 0.26489362
0.065670647 0.11894826 0.26468086
0.06615749 0.11885263 0.26446807
0.066616647 0.11870921 0.26414895
0.0670745 0.11856578 0.2638298
0.067531042 0.11842236 0.26351064
0.068041243 0.11837454 0.26340425
0.068578713 0.11837454 0.26340425
0.069060348 0.11827893 0.26319149
0.069484852 0.11808769 0.26276594
0.069935977 0.11794427 0.26244682
0.070528626 0.11803988 0.26265958
0.071237274 0.11832674 0.26329789
0.071977518 0.1186614 0.26404256
0.072603941 0.11880483 0.26436171
0.073055059 0.1186614 0.26404256
0.073297322 0.11818331 0.26297873
0.073475495 0.1176096 0.26170212
0.073678553 0.1170837 0.2605319
0.0747253 0.11789646 0.26234043
0.075901501 0.11890044 0.26457447
0.098517627 0.12946618 0.2880851
0.09943483 0.12989646 0.28904256
0.10006142 0.12994426 0.28914893
0.10046627 0.12970522 0.28861701
0.10090619 0.12951399 0.2881915
0.10153169 0.1295618 0.28829786
0.10238374 0.12989646 0.28904256
0.10312512 0.13008769 0.28946808
0.10367765 0.1300399 0.28936172
0.10399974 0.12970522 0.28861701
0.10424171 0.12927495 0.28765959
0.10459606 0.1289881 0.28702128
0.10514272 0.12894028 0.28691489
0.10576737 0.1289881 0.28702128
0.10643186 0.12908371 0.28723404
0.10701795 0.12908371 0.28723404
0.1076439 0.12913153 0.28734043
0.10823021 0.12913153 0.28734043
0.10881652 0.12913153 0.28734043
0.10936232 0.12908371 0.28723404
0.10986697 0.1289881 0.28702128
0.11032981 0.12884466 0.28670213
0.1107502 0.12865344 0.28627661
0.11116884 0.1284622 0.28585106
0.11158575 0.12827097 0.28542554
0.11208453 0.12817533 0.28521276
0.11270853 0.12822315 0.28531915
0.11337519 0.12831877 0.28553191
0.11391536 0.12827097 0.28542554
0.11436974 0.12812755 0.28510639
0.1148228 0.12798411 0.28478724
0.11531769 0.1278885 0.28457448
0.11581169 0.12779287 0.28436169
0.11630484 0.12769726 0.28414893
0.11679711 0.12760164 0.28393617
0.11724454 0.12745821 0.28361702
0.11773486 0.12736259 0.28340426
0.1181799 0.12721917 0.28308511
0.11862364 0.12707575 0.28276595
0.11902124 0.12688452 0.28234044
0.11946215 0.12674108 0.28202128
0.11999232 0.12669326 0.28191489
0.12047657 0.12659766 0.28170213
0.12095995 0.12650204 0.28148937
0.12135059 0.1263108 0.28106382
0.12169335 0.12607175 0.28053191
0.12212667 0.12592833 0.28021276
0.12260527 0.12583272 0.28
0.12312979 0.1257849 0.27989361
0.12355985 0.12564148 0.27957445
0.12398863 0.12549806 0.27925533
0.12446353 0.12540244 0.27904254
0.1250329 0.12540244 0.27904254
0.12565017 0.12545024 0.27914894
0.12617166 0.12540244 0.27904254
0.12659609 0.12525901 0.27872342
0.12701921 0.12511559 0.27840427
0.12744102 0.12497216 0.27808511
0.12795946 0.12492435 0.27797872
0.12857586 0.12497216 0.27808511
0.12909389 0.12492435 0.27797872
0.12961148 0.12487654 0.27787235
0.12992926 0.12463749 0.27734041
0.13029495 0.12444626 0.27691489
0.13060862 0.12420722 0.27638298
0.1310716 0.1241116 0.27617022
0.13168581 0.1241594 0.27627659
0.13230047 0.12420722 0.27638298
0.13291556 0.12425502 0.27648935
0.13342836 0.12420722 0.27638298
0.13394074 0.1241594 0.27627659
0.13445269 0.1241116 0.27617022
0.13512021 0.12420722 0.27638298
0.13594531 0.12444626 0.27691489
0.13666767 0.12458969 0.27723405
0.13712804 0.12449408 0.27702129
0.13742889 0.12425502 0.27648935
0.13772759 0.12401597 0.27595744
0.13818404 0.12392036 0.27574468
0.13885374 0.12401597 0.27595744
0.13952433 0.1241116 0.27617022
0.1401418 0.1241594 0.27627659
0.14075972 0.12420722 0.27638298
0.14121488 0.1241116 0.27617022
0.14155993 0.12392036 0.27574468
0.14190327 0.12372913 0.27531916
0.14229989 0.1235857 0.27500001
0.1427505 0.12349009 0.27478725
0.14331119 0.12349009 0.27478725
0.14387189 0.12349009 0.27478725
0.14432073 0.12339446 0.27457446
0.14465646 0.12320323 0.27414894
0.1450468 0.1230598 0.27382979
0.14543584 0.12291638 0.27351063
0.14588036 0.12282076 0.27329788
0.14643802 0.12282076 0.27329788
0.14705288 0.12286856 0.27340424
0.14772564 0.12296419 0.27361703
0.14834158 0.12301199 0.27372339
0.14884225 0.12296419 0.27361703
0.14928436 0.12286856 0.27340424
0.14960903 0.12267733 0.27297872
0.14987344 0.12243829 0.27244681
0.15019439 0.12224705 0.27202126
0.1506905 0.12219925 0.2719149
0.15130448 0.12224705 0.27202126
0.15191893 0.12229487 0.27212766
0.15241459 0.12224705 0.27202126
0.15285 0.12215143 0.27180851
0.15328453 0.12205582 0.27159575
0.15383871 0.12205582 0.27159575
0.1543929 0.12205582 0.27159575
0.15494707 0.12205582 0.27159575
0.15537944 0.12196021 0.27138299
0.15581092 0.12186458 0.2711702
0.15624157 0.12176897 0.27095744
0.15667133 0.12167335 0.27074468
0.15710022 0.12157774 0.27053192
0.15746625 0.12143431 0.27021277
0.15795538 0.12138649 0.27010638
0.15856896 0.12143431 0.27021277
0.15924561 0.12152992 0.27042553
0.15992312 0.12162554 0.27063829
0.16053843 0.12167335 0.27074468
0.16102758 0.12162554 0.27063829
0.16145279 0.12152992 0.27042553
0.16187713 0.12143431 0.27021277
0.16242848 0.12143431 0.27021277
0.16317235 0.12157774 0.27053192
0.16378872 0.12162554 0.27063829
0.16421176 0.12152992 0.27042553
0.16443947 0.12129088 0.26989362
0.16459997 0.12100402 0.26925531
0.16501889 0.12090841 0.26904255
0.16563334 0.12095622 0.26914895
0.16624819 0.12100402 0.26925531
0.16692942 0.12109965 0.2694681
0.16761149 0.12119526 0.26968086
0.16822809 0.12124307 0.26978722
0.16871203 0.12119526 0.26968086
0.169062 0.12105184 0.2693617
0.16941066 0.12090841 0.26904255
0.16975802 0.12076498 0.2687234
0.17030634 0.12076498 0.2687234
0.17098993 0.12086059 0.26893616
0.17167442 0.12095622 0.26914895
0.17215553 0.12090841 0.26904255
0.17249963 0.12076498 0.2687234
0.17277393 0.12057375 0.26829788
0.17325266 0.12052594 0.26819149
0.04202367 0.14393348 0.31882977
0.042517606 0.1434052 0.31765959
0.043021217 0.14292493 0.31659573
0.04356451 0.14258875 0.31585106
0.044164322 0.14244467 0.31553191
0.044808153 0.14244467 0.31553191
0.045482632 0.14254072 0.31574467
0.046142444 0.14258875 0.31585106
0.051383425 0.1268843 0.28106382
0.051799599 0.1265001 0.28021276
0.052152652 0.12597181 0.27904254
0.052440636 0.12529945 0.2775532
0.052702215 0.12457906 0.27595744
0.05301889 0.12400275 0.27468085
0.053434111 0.12366658 0.27393618
0.053930163 0.1235225 0.27361703
0.054403726 0.12333038 0.27319148
0.054854155 0.12309026 0.27265957
0.055302411 0.12285013 0.27212766
0.055748496 0.12261 0.27159575
0.056192409 0.12236988 0.27106383
0.056634154 0.12212975 0.27053192
0.057073727 0.12188962 0.27000001
0.057465717 0.12155343 0.26925531
0.057877596 0.12126528 0.26861703
0.058333144 0.12107317 0.26819149
0.058833666 0.12097713 0.26797873
0.059356894 0.12092909 0.26787233
0.059855901 0.12083305 0.26765957
0.060354039 0.120737 0.26744682
0.06082708 0.12059292 0.26712766
0.061249938 0.12035279 0.26659575
0.061645966 0.12006463 0.26595744
0.062014516 0.11972845 0.26521277
0.062455304 0.11953635 0.26478723
0.062944971 0.11944029 0.26457447
0.0634593 0.11939227 0.26446807
0.063998938 0.11939227 0.26446807
0.064460702 0.1192482 0.26414895
0.064947329 0.11915214 0.26393616
0.065406695 0.11900806 0.26361701
0.065917991 0.11896004 0.26351064
0.066402018 0.11886399 0.26329789
0.066885166 0.11876793 0.2630851
0.067340195 0.11862385 0.26276594
0.067821398 0.1185278 0.26255319
0.068329439 0.11847979 0.26244682
0.068837032 0.11843175 0.26234043
0.069316074 0.11833571 0.26212767
0.069737539 0.1181436 0.26170212
0.070157267 0.1179515 0.2612766
0.07063283 0.11785545 0.26106384
0.071136519 0.11780742 0.26095745
0.071668997 0.11780742 0.26095745
0.072172038 0.11775938 0.26085106
0.072644994 0.11766334 0.2606383
0.073087208 0.11751926 0.26031914
0.073558219 0.11742321 0.26010638
0.074149556 0.11751926 0.26031914
0.074802808 0.11771137 0.26074469
0.075519264 0.11799952 0.26138297
0.07611452 0.11809558 0.26159576
0.076617122 0.11804754 0.26148936
0.076899581 0.11766334 0.2606383
0.077146962 0.1172311 0.25968084
0.077995054 0.11771137 0.26074469
0.079263985 0.11881596 0.26319149
0.1009518 0.12866126 0.285
0.10236713 0.12971783 0.28734043
0.10302967 0.12981388 0.28755319
0.10288806 0.12890139 0.28553191
0.10358331 0.12760468 0.28265956
0.1044345 0.12794088 0.28340426
0.10528871 0.12827705 0.28414893
0.10610632 0.12856521 0.28478724
0.10688668 0.12880534 0.28531915
0.10766922 0.12904547 0.28585106
0.10837335 0.12918955 0.28617021
0.10899778 0.12923758 0.28627661
0.10954119 0.12918955 0.28617021
0.11004324 0.1290935 0.28595746
0.11054441 0.12899743 0.28574467
0.11096197 0.12880534 0.28531915
0.11146098 0.12870929 0.28510639
0.11195911 0.12861323 0.2848936
0.11254042 0.12861323 0.2848936
0.11307951 0.12856521 0.28478724
0.11361814 0.12851718 0.28468084
0.114071 0.1283731 0.28436169
0.11452256 0.12822904 0.28404257
0.11501592 0.12813297 0.28382978
0.11555174 0.12808496 0.28372341
0.11608712 0.12803692 0.28361702
0.11657831 0.12794088 0.28340426
0.11706863 0.12784483 0.2831915
0.11760228 0.1277968 0.28308511
0.11809108 0.12770075 0.28287235
0.11853439 0.12755667 0.2825532
0.11897639 0.12741259 0.28223404
0.11941709 0.12726851 0.28191489
0.11994705 0.1272205 0.28180853
0.12043107 0.12712443 0.28159574
0.12091423 0.12702838 0.28138298
0.12135059 0.1268843 0.28106382
0.12169335 0.12664418 0.28053191
0.12208031 0.12645207 0.2801064
0.12251211 0.12630799 0.27978724
0.1230362 0.12625997 0.27968085
0.12351285 0.12616391 0.27946809
0.12394139 0.12601984 0.27914894
0.12436863 0.12587576 0.27882978
0.12493757 0.12587576 0.27882978
0.12550652 0.12587576 0.27882978
0.12602736 0.12582774 0.27872342
0.12645113 0.12568367 0.27840427
0.12682505 0.12549154 0.27797872
0.12724599 0.12534747 0.27765957
0.12771462 0.12525143 0.27744681
0.12828074 0.12525143 0.27744681
0.12874806 0.12515537 0.27723405
0.12916487 0.1250113 0.27691489
0.12953055 0.12481918 0.27648935
0.12994456 0.12467512 0.27617022
0.13030697 0.12448301 0.27574468
0.13081914 0.12443499 0.27563831
0.13133086 0.12438696 0.27553192
0.131944 0.12443499 0.27563831
0.13250643 0.12443499 0.27563831
0.1330175 0.12438696 0.27553192
0.13342498 0.12424288 0.27521276
0.13388297 0.12414683 0.27500001
0.13449609 0.12419485 0.27510637
0.13521412 0.12433893 0.27542552
0.13593346 0.12448301 0.27574468
0.13639079 0.12438696 0.27553192
0.13674147 0.12419485 0.27510637
0.13709046 0.12400275 0.27468085
0.13759762 0.12395472 0.27457446
0.13831846 0.1240988 0.27489361
0.13898686 0.12419485 0.27510637
0.13960217 0.12424288 0.27521276
0.14005539 0.12414683 0.27500001
0.14039892 0.12395472 0.27457446
0.14068611 0.1237146 0.27404255
0.14091629 0.12342644 0.27340424
0.14125398 0.12323434 0.27297872
0.1417557 0.12318631 0.27287233
0.14236797 0.12323434 0.27297872
0.14298069 0.12328237 0.27308512
0.14353791 0.12328237 0.27308512
0.14403899 0.12323434 0.27297872
0.1443706 0.12304224 0.27255321
0.14464389 0.1228021 0.27202126
0.14502859 0.12265804 0.27170214
0.14558299 0.12265804 0.27170214
0.14636625 0.12285013 0.27212766
0.14715128 0.12304224 0.27255321
0.14776506 0.12309026 0.27265957
0.14820567 0.12299421 0.27244681
0.14852923 0.1228021 0.27202126
0.14879277 0.12256197 0.27148935
0.14905412 0.12232184 0.27095744
0.14943078 0.12217776 0.27063829
0.14998302 0.12217776 0.27063829
0.1506536 0.12227383 0.27085108
0.15132505 0.12236988 0.27106383
0.15187813 0.12236988 0.27106383
0.15231159 0.12227383 0.27085108
0.15274416 0.12217776 0.27063829
0.15317588 0.12208172 0.27042553
0.1536672 0.1220337 0.27031916
0.15415809 0.12198567 0.27021277
0.15446579 0.12179356 0.26978722
0.15483293 0.12164949 0.2694681
0.15526007 0.12155343 0.26925531
0.15580948 0.12155343 0.26925531
0.15629712 0.12150541 0.26914895
0.1567843 0.12145738 0.26904255
0.15727106 0.12140935 0.26893616
0.15781981 0.12140935 0.26893616
0.15849386 0.12150541 0.26914895
0.15916878 0.12160146 0.2693617
0.15978149 0.12164949 0.2694681
0.16033132 0.12164949 0.2694681
0.16075413 0.12155343 0.26925531
0.16111234 0.12140935 0.26893616
0.16166109 0.12140935 0.26893616
0.16227402 0.12145738 0.26904255
0.16295175 0.12155343 0.26925531
0.16337197 0.12145738 0.26904255
0.16366169 0.12126528 0.26861703
0.16394964 0.12107317 0.26819149
0.16436638 0.12097713 0.26797873
0.16491318 0.12097713 0.26797873
0.16552566 0.12102515 0.26808509
0.16613859 0.12107317 0.26819149
0.16675195 0.12112121 0.26829788
0.16736573 0.12116922 0.26840425
0.16784686 0.12112121 0.26829788
0.16826075 0.12102515 0.26808509
0.16860682 0.12088108 0.26776597
0.16901878 0.12078501 0.26755318
0.1694973 0.120737 0.26744682
0.17011064 0.12078501 0.26755318
0.1707923 0.12088108 0.26776597
0.17140672 0.12092909 0.26787233
0.17188503 0.12088108 0.26776597
0.17236288 0.12083305 0.26765957
0.1728403 0.12078501 0.26755318
0.043281429 0.14443932 0.31851065
0.043813951 0.14405337 0.31765959
0.044343006 0.14366743 0.31680852
0.044913907 0.14342622 0.31627661
0.045513283 0.14328149 0.31595746
0.046189066 0.14337797 0.31617022
0.046865717 0.14347446 0.31638297
0.047351532 0.14299203 0.31531915
0.047654886 0.14197892 0.31308511
0.04793271 0.14091758 0.31074467
0.05349458 0.12702362 0.2801064
0.053491171 0.12567282 0.27712765
0.053558614 0.12451498 0.27457446
0.05405597 0.12437025 0.27425531
0.054636765 0.1244185 0.2743617
0.055217996 0.12446675 0.27446809
0.055778038 0.12446675 0.27446809
0.05627257 0.12432202 0.27414894
0.056721695 0.12408081 0.27361703
0.057124104 0.12374309 0.27287233
0.057478506 0.12330892 0.2719149
0.057806294 0.12282649 0.27085108
0.058129732 0.12234405 0.26978722
0.058518253 0.12200636 0.26904255
0.058997158 0.12186162 0.2687234
0.059498332 0.12176514 0.26851064
0.060022429 0.12171689 0.26840425
0.060522087 0.12162041 0.26819149
0.060972426 0.12142745 0.26776597
0.061372146 0.12113798 0.26712766
0.061719943 0.12075204 0.2662766
0.06203939 0.12031785 0.26531914
0.062430214 0.1200284 0.26468086
0.062894359 0.11988367 0.26436171
0.063433781 0.11988367 0.26436171
0.063947454 0.11983542 0.26425532
0.064408772 0.11969069 0.26393616
0.064842619 0.11949772 0.26351064
0.06530112 0.119353 0.26319149
0.065784931 0.11925651 0.26297873
0.066294692 0.11920826 0.26287234
0.066776983 0.11911178 0.26265958
0.067231141 0.11896705 0.26234043
0.067684002 0.11882232 0.26202127
0.068135552 0.11867759 0.26170212
0.068669543 0.11867759 0.26170212
0.069175415 0.11862935 0.26159576
0.069624141 0.11848462 0.2612766
0.07001444 0.11824341 0.26074469
0.070431352 0.11805043 0.26031914
0.070875518 0.1179057 0.25999999
0.07137683 0.11785746 0.25989363
0.071877696 0.11780922 0.25978723
0.072378129 0.11776097 0.25968084
0.072878137 0.11771274 0.25957447
0.073377699 0.11766449 0.25946808
0.073876843 0.11761625 0.25936171
0.074345015 0.11751976 0.25914893
0.07481233 0.11742327 0.25893617
0.075247817 0.11727855 0.25861701
0.07571318 0.11718206 0.25840425
0.076177672 0.11708558 0.2581915
0.0767361 0.11713381 0.25829786
0.07739044 0.1173268 0.25872341
0.078142628 0.11766449 0.25946808
0.07893011 0.11805043 0.26031914
0.079656124 0.1183399 0.26095745
0.080221288 0.11838814 0.26106384
0.080655262 0.11824341 0.26074469
0.081220418 0.11829165 0.26085106
0.082019404 0.11867759 0.26170212
0.10525271 0.12740956 0.28095746
0.10646711 0.12818144 0.28265956
0.10756761 0.12880862 0.28404257
0.10847121 0.12919454 0.2848936
0.10913398 0.12929104 0.28510639
0.10967479 0.12924279 0.285
0.11021516 0.12919454 0.2848936
0.11071374 0.12909806 0.28468084
0.11121144 0.12900157 0.28446808
0.11166646 0.12885685 0.28414893
0.11216222 0.12876037 0.28393617
0.1126571 0.12866388 0.28372341
0.1131511 0.12856738 0.28351063
0.11364425 0.1284709 0.28329787
0.11413652 0.12837443 0.28308511
0.11467104 0.12832618 0.28297871
0.11520512 0.12827794 0.28287235
0.11578232 0.12827794 0.28287235
0.11631574 0.12822969 0.28276595
0.11684874 0.12818144 0.28265956
0.1173813 0.12813321 0.2825532
0.11791343 0.12808496 0.2824468
0.1184005 0.12798847 0.28223404
0.11893154 0.12794022 0.28212765
0.11941709 0.12784375 0.28191489
0.11990177 0.12774727 0.28170213
0.12038558 0.12765078 0.28148937
0.12086851 0.12755428 0.28127658
0.12125873 0.12736133 0.28085107
0.12164719 0.12716834 0.28042552
0.12208031 0.12702362 0.2801064
0.12251211 0.12687889 0.27978724
0.12298939 0.1267824 0.27957445
0.12346583 0.12668592 0.2793617
0.12394139 0.12658943 0.27914894
0.12436863 0.1264447 0.27882978
0.12488991 0.12639646 0.27872342
0.12541075 0.12634821 0.27861702
0.12593114 0.12629998 0.27851063
0.12640281 0.12620349 0.27829787
0.12677653 0.12601052 0.27787235
0.12719725 0.12586579 0.2775532
0.12761667 0.12572107 0.27723405
0.12808399 0.12562458 0.27702129
0.12850103 0.12547985 0.27670214
0.12891677 0.12533511 0.27638298
0.12928136 0.12514214 0.27595744
0.12974432 0.12504566 0.27574468
0.13020644 0.12494917 0.27553192
0.13061717 0.12480444 0.27521276
0.13112803 0.12475619 0.27510637
0.13163845 0.12470796 0.27500001
0.13219959 0.12470796 0.27500001
0.13270935 0.12465971 0.27489361
0.13311553 0.12451498 0.27457446
0.13352041 0.12437025 0.27425531
0.13402802 0.12432202 0.27414894
0.13463964 0.12437025 0.27425531
0.13525169 0.1244185 0.2743617
0.13575885 0.12437025 0.27425531
0.13615984 0.12422553 0.27393618
0.13655952 0.12408081 0.27361703
0.13711782 0.12408081 0.27361703
0.13772964 0.12412904 0.27372339
0.13839567 0.12422553 0.27393618
0.13895462 0.12422553 0.27393618
0.13940521 0.12412904 0.27372339
0.13963737 0.12383959 0.27308512
0.1398669 0.12355013 0.27244681
0.140039 0.12321243 0.27170214
0.14031814 0.12297121 0.2711702
0.1408162 0.12292297 0.27106383
0.14142478 0.12297121 0.2711702
0.1420895 0.1230677 0.27138299
0.142811 0.12321243 0.27170214
0.14342152 0.12326067 0.27180851
0.14380708 0.12311593 0.27148935
0.14402165 0.12282649 0.27085108
0.14429039 0.12258527 0.27031916
0.14484197 0.12258527 0.27031916
0.14562242 0.12277824 0.27074468
0.14640459 0.12297121 0.2711702
0.14701557 0.12301946 0.27127659
0.14745337 0.12292297 0.27106383
0.14771603 0.12268176 0.27053192
0.14797652 0.12244055 0.27000001
0.14829335 0.12224757 0.26957446
0.14872593 0.12215108 0.2693617
0.14933452 0.12219933 0.2694681
0.1500027 0.12229581 0.26968086
0.15067175 0.1223923 0.26989362
0.15122245 0.1223923 0.26989362
0.15165353 0.12229581 0.26968086
0.15202367 0.12215108 0.2693617
0.15251303 0.12210283 0.26925531
0.15288101 0.12195811 0.26893616
0.15330839 0.12186162 0.2687234
0.15355216 0.12162041 0.26819149
0.15385491 0.12142745 0.26776597
0.15433992 0.1213792 0.26765957
0.15500918 0.12147568 0.26787233
0.15555577 0.12147568 0.26787233
0.15610236 0.12147568 0.26787233
0.15652452 0.1213792 0.26765957
0.15707067 0.1213792 0.26765957
0.15767947 0.12142745 0.26776597
0.15835157 0.12152392 0.26797873
0.15902452 0.12162041 0.26819149
0.15963507 0.12166866 0.26829788
0.16005547 0.12157216 0.26808509
0.16047503 0.12147568 0.26787233
0.16089372 0.1213792 0.26765957
0.16143988 0.1213792 0.26765957
0.16198602 0.1213792 0.26765957
0.16246757 0.12133095 0.26755318
0.1629487 0.12128271 0.26744682
0.16329931 0.12113798 0.26712766
0.16377912 0.12108973 0.26702127
0.16425851 0.1210415 0.2669149
0.16486882 0.12108973 0.26702127
0.16547957 0.12113798 0.26712766
0.16602464 0.12113798 0.26712766
0.16650335 0.12108973 0.26702127
0.16684854 0.12094501 0.26670212
0.1672592 0.12084852 0.26648936
0.167602 0.12070379 0.2661702
0.16807792 0.12065556 0.26606384
0.16855338 0.12060731 0.26595744
0.1691637 0.12065556 0.26606384
0.16991018 0.12080029 0.26638299
0.17065792 0.12094501 0.26670212
0.17127042 0.12099325 0.26680851
0.17174631 0.12094501 0.26670212
0.17222179 0.12089677 0.26659575
0.042051718 0.14533153 0.31904256
0.042674232 0.1452346 0.31882977
0.043252513 0.14499231 0.31829786
0.043813951 0.14470156 0.31765959
0.044372786 0.14441079 0.31702128
0.044944119 0.14416848 0.31648937
0.045574579 0.14412002 0.31638297
0.04622015 0.14412002 0.31638297
0.046881478 0.14416848 0.31648937
0.047495313 0.14407156 0.31627661
0.048059698 0.14382926 0.31574467
0.048572686 0.14344157 0.3148936
0.049098831 0.14310236 0.31414893
0.049588248 0.14266624 0.3131915
0.05000551 0.14203624 0.3118085
0.050399859 0.14135781 0.31031916
0.050753132 0.14058244 0.30861703
0.051152598 0.13995247 0.30723405
0.051528487 0.13927403 0.30574468
0.05886323 0.12444526 0.27319148
0.059166141 0.1239122 0.27202126
0.059534341 0.12352452 0.2711702
0.059946224 0.12323377 0.27053192
0.060379285 0.12299147 0.27000001
0.060810175 0.12274917 0.2694681
0.061238889 0.12250686 0.26893616
0.061592113 0.12211918 0.26808509
0.061867896 0.12158613 0.2669149
0.062138896 0.12105307 0.26574469
0.062505484 0.12071384 0.26499999
0.062970288 0.12056847 0.26468086
0.063484833 0.12052001 0.26457447
0.063998938 0.12047154 0.26446807
0.064460702 0.12032618 0.26414895
0.064894974 0.12013233 0.2637234
0.065327518 0.11993849 0.26329789
0.065811537 0.11984156 0.2630851
0.066294692 0.11974464 0.26287234
0.066749938 0.11959927 0.26255319
0.067203879 0.11945388 0.26223403
0.067629039 0.11926005 0.26180851
0.068080157 0.11911467 0.26148936
0.068585798 0.1190662 0.26138297
0.069119148 0.1190662 0.26138297
0.069567449 0.11892083 0.26106384
0.069957308 0.11867853 0.2605319
0.070316225 0.11838777 0.25989363
0.070730522 0.11819392 0.25946808
0.071201526 0.11809701 0.25925532
0.071701095 0.11804854 0.25914893
0.072200231 0.11800009 0.25904256
0.072698928 0.11795162 0.25893617
0.073197186 0.11790316 0.25882977
0.073664717 0.11780624 0.25861701
0.074100859 0.11766087 0.25829786
0.074535705 0.1175155 0.25797874
0.07496924 0.11737011 0.25765958
0.075432643 0.11727318 0.2574468
0.075926572 0.11722473 0.25734043
0.07651487 0.11732165 0.25755319
0.077104039 0.11741856 0.25776595
0.077662043 0.11746703 0.25787234
0.078220487 0.1175155 0.25797874
0.078714408 0.11746703 0.25787234
0.079175211 0.11737011 0.25765958
0.079668045 0.11732165 0.25755319
0.080193572 0.11732165 0.25755319
0.080752447 0.11737011 0.25765958
0.081311747 0.11741856 0.25776595
0.081871487 0.11746703 0.25787234
0.082397662 0.11746703 0.25787234
0.082958058 0.1175155 0.25797874
0.083553307 0.11761241 0.2581915
0.08414942 0.11770932 0.25840425
0.084781274 0.11785471 0.25872341
0.085414425 0.11800009 0.25904256
0.086084165 0.11819392 0.25946808
0.088565432 0.11727318 0.2574468
0.10591581 0.12740132 0.27968085
0.10758012 0.12870975 0.2825532
0.10893037 0.12963049 0.28457448
0.1094701 0.12958203 0.28446808
0.11000939 0.12953356 0.28436169
0.11050687 0.12943664 0.28414893
0.11092032 0.12924281 0.28372341
0.1112484 0.12895204 0.28308511
0.11157387 0.12866129 0.2824468
0.11202347 0.1285159 0.28212765
0.11264161 0.12856437 0.28223404
0.1132175 0.12856437 0.28223404
0.11375049 0.1285159 0.28212765
0.11423995 0.12841898 0.28191489
0.11477187 0.12837054 0.28180853
0.11534689 0.12837054 0.28180853
0.11592191 0.12837054 0.28180853
0.11645295 0.12832206 0.28170213
0.11702775 0.12832206 0.28170213
0.11755814 0.12827361 0.28159574
0.11813273 0.12827361 0.28159574
0.11870731 0.12827361 0.28159574
0.11923684 0.12822515 0.28148937
0.11976592 0.12817669 0.28138298
0.12020358 0.1280313 0.28106382
0.12059423 0.12783746 0.28063831
0.12102907 0.12769209 0.28031915
0.12146261 0.12754671 0.28
0.12194121 0.1274498 0.27978724
0.12241893 0.12735286 0.27957445
0.1229426 0.1273044 0.27946809
0.12346583 0.12725595 0.2793617
0.12394139 0.12715903 0.27914894
0.12436863 0.12701364 0.27882978
0.12488991 0.12696519 0.27872342
0.12541075 0.12691672 0.27861702
0.12588306 0.1268198 0.27840427
0.12630618 0.12667443 0.27808511
0.12667945 0.12648058 0.27765957
0.12709974 0.1263352 0.27734041
0.12751874 0.12618983 0.27702129
0.12793642 0.12604445 0.27670214
0.12830341 0.1258506 0.27627659
0.12866867 0.12565677 0.27585107
0.12908201 0.12551139 0.27553192
0.12959416 0.12546292 0.27542552
0.13005562 0.125366 0.27521276
0.1305162 0.12526909 0.27500001
0.13092521 0.12512371 0.27468085
0.13143475 0.12507524 0.27457446
0.13194388 0.12502679 0.27446809
0.13245256 0.12497833 0.2743617
0.13290924 0.12488141 0.27414894
0.13326146 0.12468756 0.27372339
0.13366395 0.12454218 0.27340424
0.13416961 0.12449373 0.27329788
0.13477969 0.12454218 0.27340424
0.13528492 0.12449373 0.27329788
0.13578969 0.12444526 0.27319148
0.13618784 0.12429988 0.27287233
0.13669132 0.12425143 0.27276596
0.13719435 0.12420297 0.27265957
0.13780446 0.12425143 0.27276596
0.13836104 0.12425143 0.27276596
0.13880925 0.12415452 0.27255321
0.13909338 0.1239122 0.27202126
0.13926613 0.12357298 0.27127659
0.13943586 0.12323377 0.27053192
0.13965757 0.12294301 0.26989362
0.14009775 0.12284609 0.26968086
0.1407035 0.12289454 0.26978722
0.14142109 0.12303992 0.27010638
0.14225182 0.12328222 0.27063829
0.14291632 0.12337915 0.27085108
0.14335628 0.12328222 0.27063829
0.14356911 0.12299147 0.27000001
0.14377932 0.12270071 0.2693617
0.14421494 0.12260379 0.26914895
0.14487857 0.12270071 0.2693617
0.14565793 0.12289454 0.26978722
0.14626607 0.12294301 0.26989362
0.14664318 0.12279762 0.26957446
0.14696088 0.12260379 0.26914895
0.14727685 0.12240995 0.2687234
0.14764962 0.12226456 0.26840425
0.14813855 0.12221611 0.26829788
0.14868601 0.12221611 0.26829788
0.14935179 0.12231303 0.26851064
0.14995909 0.1223615 0.26861703
0.15044758 0.12231303 0.26851064
0.15087582 0.12221611 0.26829788
0.15130317 0.12211918 0.26808509
0.15172967 0.12202226 0.26787233
0.15215532 0.12192535 0.26765957
0.15251939 0.12177996 0.26734042
0.15269943 0.1214892 0.26670212
0.15299913 0.12129537 0.2662766
0.15348111 0.1212469 0.2661702
0.1542089 0.12139229 0.26648936
0.15481445 0.12144075 0.26659575
0.15535843 0.12144075 0.26659575
0.15577799 0.12134384 0.26638299
0.1562591 0.12129537 0.2662766
0.15686508 0.12134384 0.26638299
0.1575972 0.1214892 0.26670212
0.15833063 0.12163458 0.26702127
0.1589388 0.12168305 0.26712766
0.15942034 0.12163458 0.26702127
0.15983772 0.12153766 0.26680851
0.16019028 0.12139229 0.26648936
0.16060573 0.12129537 0.2662766
0.16114905 0.12129537 0.2662766
0.16169238 0.12129537 0.2662766
0.16223571 0.12129537 0.2662766
0.16277905 0.12129537 0.2662766
0.16325711 0.1212469 0.2661702
0.16373476 0.12119845 0.26606384
0.16427766 0.12119845 0.26606384
0.16488644 0.1212469 0.2661702
0.16536345 0.12119845 0.26606384
0.16570733 0.12105307 0.26574469
0.16591682 0.12081077 0.26521277
0.16625766 0.12066539 0.26489362
0.1665972 0.12052001 0.26457447
0.16706984 0.12047154 0.26446807
0.16760948 0.12047154 0.26446807
0.16821676 0.12052001 0.26457447
0.16902803 0.12071384 0.26499999
0.16984107 0.12090769 0.26542553
0.17045094 0.12095615 0.26553193
0.17092425 0.12090769 0.26542553
0.1713971 0.12085922 0.26531914
0.034902398 0.14603119 0.31914893
0.035553608 0.14603119 0.31914893
0.036204822 0.14603119 0.31914893
0.038158461 0.14603119 0.31914893
0.0387838 0.14593384 0.31893617
0.039381966 0.14573914 0.31851065
0.039991762 0.14559311 0.3181915
0.040613845 0.14549574 0.31797871
0.041262668 0.14549574 0.31797871
0.041911494 0.14549574 0.31797871
0.042546082 0.14544708 0.31787235
0.043136865 0.14525236 0.3174468
0.043725912 0.14505766 0.31702128
0.044313222 0.14486293 0.31659573
0.044929013 0.14476559 0.31638297
0.045574579 0.14476559 0.31638297
0.046204612 0.14471692 0.31627661
0.046834201 0.14466824 0.31617022
0.047431409 0.1445222 0.31585106
0.048059698 0.14447352 0.31574467
0.048687559 0.14442486 0.3156383
0.049298353 0.14432751 0.31542554
0.049857747 0.14408411 0.3148936
0.050312612 0.14354867 0.31372342
0.050728139 0.14291587 0.31234044
0.051155515 0.14233173 0.31106383
0.051648535 0.14194232 0.31021276
0.052191868 0.14169894 0.30968085
0.05273303 0.14145556 0.30914894
0.053235296 0.14111482 0.30840427
0.053715941 0.1407254 0.3075532
0.054230709 0.14043334 0.3069149
0.054761887 0.14018995 0.30638298
0.055271659 0.13989788 0.30574468
0.055759382 0.13955715 0.30500001
0.056224398 0.13916774 0.30414894
0.061188146 0.12519741 0.27361703
0.061482374 0.12466197 0.27244681
0.061844498 0.12427255 0.27159575
0.062178705 0.12383445 0.27063829
0.062311746 0.12300695 0.26882979
0.062412526 0.12213076 0.2669149
0.062656045 0.12154663 0.26563829
0.063071519 0.12130325 0.26510638
0.063637994 0.12135193 0.26521277
0.064153403 0.12130325 0.26510638
0.064642422 0.1212059 0.26489362
0.065078214 0.12101118 0.26446807
0.065512277 0.12081648 0.26404256
0.065944597 0.12062176 0.26361701
0.066402018 0.12047575 0.26329789
0.066858128 0.12032971 0.26297873
0.067285672 0.12013499 0.26255319
0.06771148 0.1199403 0.26212767
0.068163253 0.11979426 0.26180851
0.06864164 0.11969691 0.26159576
0.069147281 0.11964823 0.26148936
0.069567449 0.11945353 0.26106384
0.069957308 0.11921013 0.2605319
0.070316225 0.11891808 0.25989363
0.070701525 0.11867469 0.25936171
0.071143098 0.11852866 0.25904256
0.071642227 0.11847997 0.25893617
0.072140925 0.11843129 0.25882977
0.07263919 0.11838263 0.25872341
0.073106937 0.11828528 0.25851065
0.073543519 0.11813924 0.2581915
0.073978789 0.11799321 0.25787234
0.074412756 0.11784717 0.25755319
0.074814476 0.11765248 0.25712767
0.075276792 0.11755511 0.25691488
0.075801015 0.11755511 0.25691488
0.076356851 0.11760379 0.25702128
0.076944932 0.11770114 0.25723404
0.077469811 0.11770114 0.25723404
0.077930182 0.11760379 0.25702128
0.078357205 0.11745775 0.25670213
0.078815617 0.11736041 0.25648937
0.079273164 0.11726306 0.25627661
0.079796083 0.11726306 0.25627661
0.08025232 0.11716569 0.25606382
0.080674142 0.11701968 0.2557447
0.081027098 0.11677627 0.25521275
0.081411883 0.11658157 0.25478724
0.081863351 0.11648422 0.25457448
0.082348377 0.11643554 0.25446808
0.082902253 0.11648422 0.25457448
0.083456561 0.11653289 0.25468084
0.084046394 0.11663026 0.25489363
0.084637083 0.11672761 0.25510639
0.085228637 0.11682495 0.25531915
0.085749604 0.11682495 0.25531915
0.086126797 0.11663026 0.25489363
0.086393751 0.1162895 0.25414893
0.086694047 0.11599744 0.25351062
0.087138139 0.11590009 0.25329787
0.087839052 0.11614347 0.25382978
0.088653237 0.11653289 0.25468084
0.089321904 0.11672761 0.25510639
0.08969257 0.11653289 0.25468084
0.089797728 0.11599744 0.25351062
0.089822315 0.11536464 0.25212765
0.090413012 0.11546201 0.25234044
0.091579579 0.1162895 0.25414893
0.11029646 0.12909158 0.28212765
0.1101196 0.12821539 0.28021276
0.11014505 0.12758259 0.27882978
0.11058728 0.12743655 0.27851063
0.11153769 0.12787466 0.27946809
0.11236399 0.12816672 0.2801064
0.11284975 0.12806936 0.27989361
0.11307599 0.12767994 0.27904254
0.1135154 0.12753391 0.27872342
0.11408412 0.12753391 0.27872342
0.11478412 0.12767994 0.27904254
0.11544146 0.12777731 0.27925533
0.11614385 0.12792332 0.27957445
0.11684754 0.12806936 0.27989361
0.11755255 0.12821539 0.28021276
0.118214 0.12831274 0.28042552
0.1187862 0.12831274 0.28042552
0.11926784 0.12821539 0.28021276
0.11970311 0.12806936 0.27989361
0.12004565 0.12782598 0.2793617
0.12047789 0.12767994 0.27904254
0.12095498 0.12758259 0.27882978
0.12152392 0.12758259 0.27882978
0.12209286 0.12758259 0.27882978
0.1226618 0.12758259 0.27882978
0.12318373 0.12753391 0.27872342
0.12370522 0.12748523 0.27861702
0.12422627 0.12743655 0.27851063
0.1247469 0.12738788 0.27840427
0.12531498 0.12738788 0.27840427
0.12578684 0.12729052 0.27819148
0.12620954 0.1271445 0.27787235
0.12658237 0.12694979 0.27744681
0.12700224 0.12680376 0.27712765
0.12737183 0.12660906 0.27670214
0.12773967 0.12641434 0.27627659
0.12805639 0.12617095 0.27574468
0.12847017 0.12602492 0.27542552
0.12893249 0.12592757 0.27521276
0.12944399 0.12587889 0.27510637
0.12995507 0.12583022 0.27500001
0.13036473 0.12568419 0.27468085
0.13077308 0.12553816 0.2743617
0.13123107 0.12544081 0.27414894
0.1317393 0.12539212 0.27404255
0.13229848 0.12539212 0.27404255
0.13270293 0.12524608 0.27372339
0.13310608 0.12510005 0.27340424
0.13345592 0.12490535 0.27297872
0.13390847 0.124808 0.27276596
0.13441259 0.12475932 0.27265957
0.13502161 0.124808 0.27276596
0.1355253 0.12475932 0.27265957
0.13602857 0.12471065 0.27255321
0.13642476 0.12456462 0.27223405
0.13687319 0.12446725 0.27202126
0.13737449 0.12441858 0.2719149
0.13787536 0.1243699 0.27180851
0.13832162 0.12427255 0.27159575
0.1387126 0.12412652 0.27127659
0.13893844 0.12383445 0.27063829
0.13916171 0.1235424 0.27000001
0.13938233 0.12325033 0.2693617
0.13976616 0.1231043 0.26904255
0.14037062 0.12315298 0.26914895
0.14108691 0.12329901 0.2694681
0.14191633 0.1235424 0.27000001
0.14257953 0.12363975 0.27021277
0.14301819 0.1235424 0.27000001
0.14322969 0.12325033 0.2693617
0.14343861 0.12295827 0.2687234
0.14381592 0.12281223 0.26840425
0.1443636 0.12281223 0.26840425
0.1449687 0.12286092 0.26851064
0.14551659 0.12286092 0.26851064
0.14594874 0.12276357 0.26829788
0.14638001 0.1226662 0.26808509
0.14675212 0.12252018 0.26776597
0.14718144 0.12242281 0.26755318
0.14766864 0.12237415 0.26744682
0.14815539 0.12232547 0.26734042
0.14870089 0.12232547 0.26734042
0.14924639 0.12232547 0.26734042
0.14973229 0.1222768 0.26723406
0.15015791 0.12217943 0.26702127
0.15058269 0.12208208 0.26680851
0.15100659 0.12198473 0.26659575
0.15149009 0.12193605 0.26648936
0.15185177 0.12179001 0.2661702
0.15209034 0.12154663 0.26563829
0.15238787 0.12135193 0.26521277
0.15286767 0.12130325 0.26510638
0.15347019 0.12135193 0.26521277
0.1540731 0.12140059 0.26531914
0.1544905 0.12130325 0.26510638
0.15490702 0.1212059 0.26489362
0.15544753 0.1212059 0.26489362
0.15617597 0.12135193 0.26521277
0.15690573 0.12149796 0.26553193
0.15757369 0.12159532 0.26574469
0.15824252 0.12169266 0.26595744
0.15878519 0.12169266 0.26595744
0.15920042 0.12159532 0.26574469
0.15955082 0.12144928 0.26542553
0.15983574 0.12125456 0.26499999
0.16031209 0.1212059 0.26489362
0.16091718 0.12125456 0.26499999
0.16158755 0.12135193 0.26521277
0.16219373 0.12140059 0.26531914
0.16266987 0.12135193 0.26521277
0.16314556 0.12130325 0.26510638
0.16368648 0.12130325 0.26510638
0.16429333 0.12135193 0.26521277
0.16470225 0.12125456 0.26499999
0.16497764 0.12105986 0.26457447
0.16511817 0.12076779 0.26393616
0.16538964 0.1205731 0.26351064
0.16572636 0.12042706 0.26319149
0.16612899 0.12032971 0.26297873
0.16673301 0.12037838 0.2630851
0.16740511 0.12047575 0.26329789
0.16821378 0.12067045 0.2637234
0.16895612 0.12081648 0.26404256
0.16956319 0.12086516 0.26414895
0.16996515 0.12076779 0.26393616
0.17036626 0.12067045 0.2637234
0.032265246 0.14653572 0.31882977
0.032860894 0.14629126 0.31829786
0.033465572 0.14609568 0.31787235
0.034057096 0.14585121 0.31734043
0.034669716 0.14570452 0.31702128
0.035316586 0.14570452 0.31702128
0.035999663 0.14585121 0.31734043
0.036671754 0.14594899 0.31755319
0.037332214 0.1459979 0.31765959
0.037967667 0.14594899 0.31755319
0.038589753 0.14585121 0.31734043
0.03918466 0.14565563 0.31691489
0.0397912 0.14550894 0.31659573
0.040423617 0.14546005 0.31648937
0.041083205 0.14550894 0.31659573
0.041729208 0.14550894 0.31659573
0.042360976 0.14546005 0.31648937
0.042948935 0.14526448 0.31606382
0.043535162 0.1450689 0.3156383
0.044149432 0.14497112 0.31542554
0.044808153 0.14502001 0.31553191
0.04546731 0.1450689 0.3156383
0.046095818 0.14502001 0.31553191
0.046676617 0.14482443 0.31510639
0.047239706 0.14457996 0.31457448
0.047865391 0.14453107 0.31446809
0.048523463 0.14457996 0.31457448
0.049165342 0.14457996 0.31457448
0.049722996 0.14433548 0.31404254
0.050210245 0.14389545 0.31308511
0.050676305 0.14340651 0.31202129
0.051155515 0.14296645 0.31106383
0.051719386 0.14277089 0.31063831
0.052353233 0.14277089 0.31063831
0.05296893 0.14272198 0.31053191
0.053547472 0.14257529 0.31021276
0.054068964 0.14228193 0.30957446
0.054644253 0.14213526 0.30925533
0.055256262 0.14208636 0.30914894
0.055867836 0.14203747 0.30904254
0.056478985 0.14198858 0.30893618
0.057050359 0.14184189 0.30861703
0.057660196 0.141793 0.30851063
0.058370106 0.14198858 0.30893618
0.059122376 0.14228193 0.30957446
0.05983619 0.14247751 0.31
0.060344227 0.14218415 0.3093617
0.060702883 0.14154853 0.30797872
0.060780488 0.14027728 0.30521277
0.060932413 0.1392016 0.30287233
0.063183665 0.12419111 0.27021277
0.063057527 0.12287097 0.26734042
0.063147448 0.12199087 0.26542553
0.063765623 0.12213755 0.26574469
0.064333603 0.12218644 0.26585105
0.064850107 0.12213755 0.26574469
0.065287635 0.12194197 0.26531914
0.065723434 0.1217464 0.26489362
0.066184103 0.12159972 0.26457447
0.066643476 0.12145303 0.26425532
0.067101538 0.12130635 0.26393616
0.067531042 0.12111078 0.26351064
0.067931324 0.12086631 0.26297873
0.068357132 0.12067073 0.26255319
0.068809114 0.12052404 0.26223403
0.0692598 0.12037735 0.26191488
0.06968084 0.12018178 0.26148936
0.070043005 0.11988842 0.26085106
0.07040257 0.11959507 0.26021278
0.070759527 0.1193017 0.25957447
0.071172304 0.11910611 0.25914893
0.071642227 0.11900833 0.25893617
0.072170578 0.11900833 0.25893617
0.072698928 0.11900833 0.25893617
0.073167108 0.11891054 0.25872341
0.073634423 0.11881275 0.25851065
0.074070349 0.11866608 0.2581915
0.07447423 0.11847049 0.25776595
0.074907325 0.1183238 0.2574468
0.075370304 0.11822602 0.25723404
0.075863793 0.11817713 0.25712767
0.076388456 0.11817713 0.25712767
0.076913118 0.11817713 0.25712767
0.077373691 0.11807933 0.25691488
0.077801153 0.11793265 0.25659573
0.078162365 0.11768818 0.25606382
0.078554094 0.11749261 0.2556383
0.079042807 0.11744371 0.25553191
0.079564214 0.11744371 0.25553191
0.080052279 0.11739483 0.25542554
0.080506347 0.11729703 0.25521275
0.080858223 0.11705256 0.25468084
0.081207931 0.11680809 0.25414893
0.081623882 0.11666141 0.25382978
0.082038529 0.11651472 0.25351062
0.08252117 0.11646584 0.25340426
0.083038233 0.11646584 0.25340426
0.083555296 0.11646584 0.25340426
0.084072359 0.11646584 0.25340426
0.084553905 0.11641694 0.25329787
0.084927842 0.11622137 0.25287235
0.085264094 0.1159769 0.25234044
0.085598171 0.11573242 0.25180852
0.086039208 0.11563463 0.25159574
0.086552583 0.11563463 0.25159574
0.087139592 0.11573242 0.25180852
0.087764479 0.1158791 0.25212765
0.088278942 0.1158791 0.25212765
0.088681012 0.11573242 0.25180852
0.089006394 0.11548795 0.25127658
0.089329615 0.11524347 0.25074467
0.089803144 0.11519459 0.25063831
0.090391226 0.11529238 0.25085106
0.091134392 0.11558574 0.25148937
0.091841385 0.11583021 0.25202128
0.092433594 0.11592799 0.25223404
0.092987478 0.1159769 0.25234044
0.093660042 0.11617247 0.25276595
0.094532527 0.11661252 0.25372341
0.11468542 0.12688029 0.27606383
0.11578166 0.12746701 0.27734041
