# .PCD v0.7 - Point Cloud Data file format
VERSION 0.7
FIELDS x y z
SIZE 4 4 4
TYPE F F F
COUNT 1 1 1
WIDTH 1333
HEIGHT 1
VIEWPOINT 0 0 0 1 0 0 0
POINTS 1333
DATA ascii
0.041343637 -0.054442566 0.16393617
0.041651096 -0.054407239 0.16382979
0.041958123 -0.054371912 0.16372341
0.042292196 -0.054371912 0.16372341
0.042653967 -0.054407239 0.16382979
0.042960342 -0.054371912 0.16372341
0.043294411 -0.054371912 0.16372341
0.043628484 -0.054371912 0.16372341
0.043991122 -0.054407239 0.16382979
0.044382975 -0.054477897 0.16404255
0.15596971 -0.086168341 0.25946808
0.15637082 -0.086097687 0.25925532
0.15670668 -0.085991696 0.25893617
0.15684742 -0.085779719 0.25829786
0.15718003 -0.085673742 0.25797874
0.1578365 -0.085744396 0.2581915
0.15868957 -0.085921042 0.25872341
0.15954483 -0.086097687 0.25925532
0.16040225 -0.086274333 0.25978723
-0.12705602 -0.073033594 0.2212766
-0.12690884 -0.073209152 0.22180851
-0.12700211 -0.073525168 0.22276595
-0.12703103 -0.073806062 0.22361702
-0.12687582 -0.07398162 0.22414893
-0.12641846 -0.07398162 0.22414893
-0.1259013 -0.073946513 0.22404255
-0.12544416 -0.073946513 0.22404255
-0.124987 -0.073946513 0.22404255
-0.12452985 -0.073946513 0.22404255
-0.055878457 -0.051825758 0.15702127
-0.055558059 -0.051825758 0.15702127
-0.055237662 -0.051825758 0.15702127
-0.05488006 -0.051790647 0.15691489
-0.054485906 -0.051720425 0.15670213
-0.054129388 -0.051685315 0.15659575
-0.053809859 -0.051685315 0.15659575
-0.05352667 -0.051720425 0.15670213
-0.053243041 -0.051755536 0.15680851
-0.05292308 -0.051755536 0.15680851
-0.05256743 -0.051720425 0.15670213
-0.052247684 -0.051720425 0.15670213
-0.051963191 -0.051755536 0.15680851
-0.051713299 -0.051825758 0.15702127
-0.051427726 -0.051860876 0.15712766
-0.051003303 -0.051755536 0.15680851
-0.050373878 -0.051439527 0.15585107
-0.049645856 -0.051018178 0.15457447
-0.049092796 -0.050772391 0.15382978
-0.066244461 -0.07798443 0.2362766
-0.065703124 -0.077914201 0.23606382
-0.065133266 -0.077808872 0.23574468
-0.064593889 -0.077738643 0.23553191
-0.064055376 -0.077668421 0.23531915
-0.063517734 -0.077598192 0.23510638
-0.063009486 -0.077563077 0.235
-0.062501669 -0.07752797 0.23489362
-0.061994288 -0.077492855 0.23478724
0.03941318 -0.054213397 0.16425532
0.039722595 -0.054178286 0.16414894
0.040005609 -0.054108061 0.16393617
0.040340118 -0.054108061 0.16393617
0.040701017 -0.054143172 0.16404255
0.041035742 -0.054143172 0.16404255
0.041343637 -0.054108061 0.16393617
0.041624051 -0.054037839 0.16372341
0.041930858 -0.054002721 0.16361701
0.042237233 -0.05396761 0.16351064
0.042543177 -0.053932499 0.16340426
0.042876597 -0.053932499 0.16340426
0.043210018 -0.053932499 0.16340426
0.043571785 -0.05396761 0.16351064
0.043962557 -0.054037839 0.16372341
0.044382975 -0.054143172 0.16404255
0.15630664 -0.085533574 0.25914893
0.15657791 -0.085393123 0.25872341
0.15671822 -0.085182451 0.2580851
0.15698558 -0.085042007 0.25765958
0.1576414 -0.085112229 0.25787234
0.15855908 -0.085322902 0.25851065
0.1596103 -0.085603803 0.25936171
0.16053362 -0.085814469 0.25999999
-0.1271171 -0.072616979 0.22138298
-0.12696971 -0.072791457 0.22191489
-0.12706275 -0.073105514 0.22287235
-0.12703103 -0.073349781 0.22361702
-0.12669517 -0.073419571 0.22382979
-0.12617846 -0.07338468 0.22372341
-0.12560239 -0.073314883 0.22351064
-0.12514633 -0.073314883 0.22351064
-0.12469026 -0.073314883 0.22351064
-0.12411594 -0.073245101 0.22329788
-0.055878457 -0.051505361 0.15702127
-0.055520419 -0.05147047 0.15691489
-0.055162817 -0.051435575 0.15680851
-0.054768443 -0.051365785 0.15659575
-0.054374933 -0.051295992 0.15638298
-0.054019067 -0.051261101 0.1562766
-0.05370019 -0.051261101 0.1562766
-0.053417649 -0.051295992 0.15638298
-0.053134676 -0.051330887 0.15648936
-0.052815367 -0.051330887 0.15648936
-0.052531745 -0.051365785 0.15659575
-0.052212216 -0.051365785 0.15659575
-0.051927939 -0.05140068 0.15670213
-0.051678266 -0.05147047 0.15691489
-0.051427726 -0.051540263 0.15712766
-0.051003303 -0.051435575 0.15680851
-0.050373878 -0.051121518 0.15585107
-0.049645856 -0.050702773 0.15457447
-0.049092796 -0.050458506 0.15382978
-0.065767236 -0.076943994 0.23457447
-0.065258987 -0.076909095 0.23446809
-0.064780563 -0.076909095 0.23446809
-0.064331315 -0.076943994 0.23457447
-0.063939549 -0.077048674 0.23489362
-0.063546479 -0.077153362 0.23521277
-0.063066535 -0.077153362 0.23521277
-0.062558278 -0.077118464 0.23510638
-0.062022377 -0.077048674 0.23489362
0.039464232 -0.05394803 0.16446808
0.039748337 -0.05387824 0.16425532
0.040031571 -0.053808447 0.16404255
0.040340118 -0.053773556 0.16393617
0.040674623 -0.053773556 0.16393617
0.040982518 -0.053738661 0.16382979
0.041263148 -0.053668868 0.16361701
0.041542914 -0.053599078 0.16340426
0.041821804 -0.053529285 0.16319148
0.042154793 -0.053529285 0.16319148
0.04246008 -0.053494394 0.1630851
0.042792853 -0.053494394 0.1630851
0.043153752 -0.053529285 0.16319148
0.04351509 -0.053564183 0.16329788
0.043962557 -0.053703766 0.16372341
0.04441176 -0.053843349 0.16414894
0.044833697 -0.05394803 0.16446808
0.15630664 -0.085004784 0.25914893
0.15670668 -0.084934995 0.25893617
0.15691203 -0.084760524 0.25840425
0.15718003 -0.084620945 0.25797874
0.15777145 -0.084655836 0.2580851
0.15862432 -0.084830314 0.25861701
0.15967576 -0.085109472 0.25946808
0.16059931 -0.085318848 0.26010638
0.16132775 -0.085423537 0.26042554
-0.12699494 -0.072095901 0.22117022
-0.12690884 -0.072303966 0.22180851
-0.12700211 -0.072616071 0.22276595
-0.12691016 -0.072824143 0.22340426
-0.12651452 -0.072858818 0.22351064
-0.12593846 -0.072789468 0.22329788
-0.12536326 -0.07272011 0.22308511
-0.12490807 -0.07272011 0.22308511
-0.12433418 -0.072650753 0.22287235
-0.12364289 -0.072512038 0.22244681
-0.056484185 -0.051739816 0.1587234
-0.055934474 -0.051531751 0.15808511
-0.055200242 -0.051150288 0.15691489
-0.054768443 -0.05104626 0.15659575
-0.054337945 -0.050942224 0.1562766
-0.053945519 -0.050872862 0.15606382
-0.053590521 -0.050838187 0.15595745
-0.053308632 -0.050872862 0.15606382
-0.053026315 -0.050907545 0.15617022
-0.052743558 -0.050942224 0.1562766
-0.052460369 -0.050976899 0.15638298
-0.052176744 -0.051011577 0.15648936
-0.05189269 -0.05104626 0.15659575
-0.051678266 -0.051150288 0.15691489
-0.051392902 -0.051184967 0.15702127
-0.051037908 -0.051150288 0.15691489
-0.050477035 -0.050907545 0.15617022
-0.049816694 -0.050560761 0.15510638
-0.065111056 -0.075702429 0.23223405
-0.064726017 -0.075806469 0.2325532
-0.064339675 -0.075910494 0.23287234
-0.064039558 -0.076118566 0.23351064
-0.063794754 -0.076395996 0.23436171
-0.06348899 -0.076604061 0.235
-0.063066535 -0.076673418 0.23521277
-0.062558278 -0.076638736 0.23510638
0.039540812 -0.053716473 0.16478723
0.03982557 -0.05364712 0.16457447
0.040083494 -0.053543083 0.16425532
0.040366296 -0.053473726 0.16404255
0.040648229 -0.053404372 0.16382979
0.040902682 -0.053300336 0.16351064
0.04115583 -0.0531963 0.16319148
0.041434728 -0.053126946 0.16297872
0.041740019 -0.053092267 0.16287234
0.042072352 -0.053092267 0.16287234
0.042404689 -0.053092267 0.16287234
0.042737026 -0.053092267 0.16287234
0.043097492 -0.053126946 0.16297872
0.04348674 -0.0531963 0.16319148
0.043962557 -0.053369693 0.16372341
0.044469323 -0.053577762 0.1643617
0.0448917 -0.053681798 0.16468085
0.15656331 -0.084614716 0.25957447
0.15702859 -0.084580034 0.25946808
0.15736422 -0.084476002 0.25914893
0.15769854 -0.084371969 0.25882977
0.15816166 -0.084337294 0.25872341
0.15888533 -0.084441327 0.25904256
0.15974124 -0.084614716 0.25957447
0.16053362 -0.084753424 0.25999999
0.16113004 -0.084788106 0.26010638
-0.12681167 -0.071541227 0.22085106
-0.12666537 -0.07171353 0.22138298
-0.1267595 -0.072023682 0.22234042
-0.12666842 -0.072230451 0.22297873
-0.12621345 -0.072230451 0.22297873
-0.12569846 -0.072195992 0.22287235
-0.12512414 -0.072127067 0.22265957
-0.12461025 -0.072092608 0.22255319
-0.12397809 -0.071989223 0.22223404
-0.1232881 -0.071851373 0.22180851
-0.12265876 -0.071747988 0.22148935
-0.057052057 -0.051932864 0.16031915
-0.056348525 -0.051588256 0.15925533
-0.055237662 -0.05086457 0.15702127
-0.054768443 -0.05072673 0.15659575
-0.054300956 -0.050588883 0.15617022
-0.053871978 -0.050485499 0.15585107
-0.053480856 -0.050416578 0.15563829
-0.053199623 -0.05045104 0.15574469
-0.05291795 -0.050485499 0.15585107
-0.052671749 -0.050554421 0.15606382
-0.05242468 -0.050623346 0.1562766
-0.052141275 -0.050657805 0.15638298
-0.05185743 -0.050692264 0.15648936
-0.05164323 -0.050795648 0.15680851
-0.051392902 -0.05086457 0.15702127
-0.051072508 -0.05086457 0.15702127
-0.050614577 -0.05072673 0.15659575
-0.050090037 -0.050519962 0.15595745
-0.064663656 -0.074711643 0.2306383
-0.064281881 -0.074815035 0.23095745
-0.063957579 -0.074987337 0.23148936
-0.063747808 -0.075297482 0.2324468
-0.063621007 -0.075711019 0.2337234
-0.063402772 -0.076021165 0.23468085
-0.063038006 -0.076159015 0.23510638
-0.062586591 -0.076193474 0.23521277
0.039693974 -0.053587001 0.16542554
0.039928544 -0.053449154 0.16500001
0.040109456 -0.053242385 0.1643617
0.040340118 -0.053104542 0.16393617
0.040569045 -0.052966699 0.16351064
0.040849458 -0.052897777 0.16329788
0.041102175 -0.052794393 0.16297872
0.041353587 -0.052691009 0.16265957
0.041685488 -0.052691009 0.16265957
0.042044874 -0.052725472 0.16276596
0.042404689 -0.052759934 0.16287234
0.042737026 -0.052759934 0.16287234
0.043097492 -0.052794393 0.16297872
0.04351509 -0.052897777 0.16329788
0.043991122 -0.053070083 0.16382979
0.04452689 -0.053311311 0.16457447
0.044949695 -0.053414691 0.16489361
0.15688413 -0.084257372 0.26010638
0.15741488 -0.084257372 0.26010638
0.15788101 -0.084222905 0.25999999
0.15828191 -0.084153987 0.25978723
0.15868193 -0.08408507 0.25957447
0.15914632 -0.084050603 0.25946808
0.15967576 -0.084050603 0.25946808
0.1602052 -0.084050603 0.25946808
0.16073462 -0.084050603 0.25946808
-0.12656733 -0.070953615 0.22042553
-0.12648277 -0.071159072 0.22106382
-0.12645625 -0.07139878 0.22180851
-0.12630582 -0.071570002 0.22234042
-0.12591237 -0.071604252 0.22244681
-0.12539847 -0.071570002 0.22234042
-0.12494478 -0.071570002 0.22234042
-0.12443154 -0.071535759 0.22223404
-0.1237407 -0.07139878 0.22180851
-0.12299245 -0.071227565 0.2212766
-0.12236419 -0.071124829 0.22095744
-0.057544213 -0.052050911 0.16170213
-0.056649648 -0.051537249 0.16010638
-0.055237662 -0.050544173 0.15702127
-0.054768443 -0.050407201 0.15659575
-0.054263964 -0.050235976 0.15606382
-0.053835206 -0.050133247 0.15574469
-0.0534443 -0.050064757 0.15553191
-0.053090606 -0.050030515 0.15542553
-0.052845705 -0.050099 0.15563829
-0.05259994 -0.05016749 0.15585107
-0.052353304 -0.050235976 0.15606382
-0.052070335 -0.050270226 0.15617022
-0.051822178 -0.050338712 0.15638298
-0.051608194 -0.050441444 0.15670213
-0.051392902 -0.050544173 0.15702127
-0.051107112 -0.050578419 0.15712766
-0.050717726 -0.05050993 0.15691489
-0.050329212 -0.050441444 0.15670213
-0.065044135 -0.074138306 0.23031914
-0.06454435 -0.074104063 0.23021276
-0.064045005 -0.07406982 0.23010638
-0.063663654 -0.074172549 0.23042554
-0.063514404 -0.074549235 0.23159574
-0.063447259 -0.07502865 0.23308511
-0.063316546 -0.07543958 0.23436171
-0.063009486 -0.075645044 0.235
-0.062558278 -0.075679287 0.23510638
0.039923713 -0.053557649 0.16638298
0.04013449 -0.053386427 0.16585106
0.040213298 -0.053043988 0.16478723
0.040366296 -0.05280428 0.16404255
0.040569045 -0.052633058 0.16351064
0.040822845 -0.052530326 0.16319148
0.041102175 -0.05246184 0.16297872
0.041380636 -0.052393354 0.16276596
0.041685488 -0.052359108 0.16265957
0.042072352 -0.052427597 0.16287234
0.042432386 -0.05246184 0.16297872
0.042764939 -0.05246184 0.16297872
0.043125622 -0.052496083 0.1630851
0.043543439 -0.052598815 0.16340426
0.044019688 -0.052770037 0.16393617
0.044555672 -0.053009745 0.16468085
0.045007698 -0.05314672 0.16510639
0.15720497 -0.083897851 0.2606383
0.15780118 -0.083932102 0.26074469
0.15826862 -0.083897851 0.2606383
0.15867081 -0.083829366 0.26042554
0.15900709 -0.08372663 0.26010638
0.15927681 -0.083589651 0.25968084
0.1596103 -0.08348693 0.25936171
0.15987678 -0.083349943 0.25893617
0.16020742 -0.083247215 0.25861701
-0.126323 -0.070367731 0.22
-0.1262393 -0.070571899 0.2206383
-0.12615299 -0.070776053 0.2212766
-0.12600365 -0.070946187 0.22180851
-0.12567151 -0.071014248 0.22202128
-0.12527847 -0.071048275 0.22212766
-0.12482522 -0.071048275 0.22212766
-0.12431242 -0.071014248 0.22202128
-0.12368134 -0.070912167 0.22170213
-0.12293332 -0.070742033 0.22117022
-0.056900624 -0.051142506 0.15989362
-0.05619796 -0.050802238 0.15882979
-0.055162817 -0.050155725 0.15680851
-0.054694027 -0.050019618 0.15638298
-0.054226976 -0.049883507 0.15595745
-0.05379843 -0.049781427 0.15563829
-0.053371191 -0.04967935 0.15531915
-0.053054269 -0.04967935 0.15531915
-0.052773464 -0.049713373 0.15542553
-0.052528132 -0.049781427 0.15563829
-0.052281931 -0.049849484 0.15585107
-0.052034862 -0.049917534 0.15606382
-0.051822178 -0.050019618 0.15638298
-0.051608194 -0.050121699 0.15670213
-0.051392902 -0.050223775 0.15702127
-0.051107112 -0.050257806 0.15712766
-0.050683342 -0.050155725 0.15680851
-0.050295047 -0.050087672 0.15659575
-0.065164313 -0.073804453 0.23074467
-0.064633831 -0.073736399 0.23053192
-0.064045005 -0.073600292 0.23010638
-0.063634261 -0.073668346 0.23031914
-0.063426882 -0.073974594 0.2312766
-0.063389339 -0.074484996 0.23287234
-0.063259065 -0.074893318 0.23414893
-0.062980957 -0.075131506 0.23489362
-0.062529974 -0.075165533 0.235
0.040153455 -0.053524394 0.16734043
0.040314697 -0.053286202 0.16659574
0.040317141 -0.052843854 0.16521277
0.040392473 -0.052503586 0.16414894
0.040569045 -0.052299421 0.16351064
0.040822845 -0.052197341 0.16319148
0.041102175 -0.052129287 0.16297872
0.041407682 -0.05209526 0.16287234
0.041740019 -0.05209526 0.16287234
0.042127311 -0.052163314 0.1630851
0.042487778 -0.052197341 0.16319148
0.042848684 -0.052231371 0.16329788
0.043181885 -0.052231371 0.16329788
0.043543439 -0.052265394 0.16340426
0.044019688 -0.052435528 0.16393617
0.04452689 -0.052639693 0.16457447
0.044949695 -0.05274177 0.16489361
0.15799433 -0.083502144 0.26106384
0.15846242 -0.083468109 0.26095745
0.15886526 -0.083400056 0.26074469
0.15907213 -0.083229922 0.26021278
0.15927681 -0.08305978 0.25968084
0.1594139 -0.082855627 0.25904256
0.15961404 -0.082685493 0.25851065
0.15987791 -0.082549378 0.2580851
-0.12628148 -0.069648348 0.21914893
-0.12607867 -0.069783591 0.21957447
-0.12593496 -0.069952637 0.22010638
-0.1259104 -0.070189312 0.22085106
-0.12582235 -0.070392169 0.22148935
-0.12561128 -0.070527405 0.22191489
-0.12521848 -0.070561223 0.22202128
-0.12482522 -0.070595026 0.22212766
-0.12437198 -0.070595026 0.22212766
-0.1237407 -0.070493594 0.22180851
-0.12305158 -0.070358358 0.22138298
-0.056219183 -0.050207671 0.15797873
-0.055746268 -0.050072432 0.1575532
-0.055050544 -0.049734332 0.15648936
-0.054656822 -0.049666714 0.1562766
-0.054226976 -0.049565282 0.15595745
-0.05379843 -0.049463853 0.15563829
-0.053371191 -0.049362425 0.15531915
-0.053017925 -0.04932861 0.15521276
-0.05270122 -0.04932861 0.15521276
-0.052456323 -0.049396235 0.15542553
-0.052246246 -0.049497664 0.15574469
-0.052034862 -0.049599092 0.15606382
-0.051822178 -0.049700521 0.15638298
-0.051608194 -0.049801953 0.15670213
-0.051392902 -0.049903378 0.15702127
-0.051037908 -0.049869571 0.15691489
-0.050545804 -0.049700521 0.15638298
-0.049987532 -0.049463853 0.15563829
-0.065344572 -0.073536485 0.23138298
-0.064812787 -0.073468864 0.23117021
-0.064252272 -0.073367439 0.23085107
-0.063810617 -0.07340125 0.23095745
-0.063572757 -0.073671728 0.23180851
-0.063476212 -0.074111253 0.23319149
-0.063287802 -0.074449353 0.23425531
-0.062923908 -0.074584588 0.23468085
-0.062473364 -0.074618407 0.23478724
0.040255561 -0.05331818 0.16776596
0.040417675 -0.053081509 0.16702127
0.040420983 -0.05264198 0.1656383
0.040444829 -0.052236263 0.1643617
0.040621836 -0.052033406 0.16372341
0.040849458 -0.051898167 0.16329788
0.041129004 -0.051830545 0.1630851
0.041434728 -0.051796734 0.16297872
0.041821804 -0.051864352 0.16319148
0.042182274 -0.051898167 0.16329788
0.042543177 -0.051931974 0.16340426
0.042848684 -0.051898167 0.16329788
0.043181885 -0.051898167 0.16329788
0.04351509 -0.051898167 0.16329788
0.043933988 -0.051999591 0.16361701
0.04441176 -0.052168645 0.16414894
0.044833697 -0.052270073 0.16446808
0.15799433 -0.082969449 0.26106384
0.15839781 -0.082901821 0.26085106
0.15880044 -0.082834207 0.2606383
0.15900709 -0.082665153 0.26010638
0.15914632 -0.082462296 0.25946808
0.15921749 -0.082225628 0.25872341
0.15948266 -0.082090385 0.25829786
0.15987791 -0.082022764 0.2580851
0.16040452 -0.082022764 0.2580851
-0.12597498 -0.06903322 0.21861702
-0.12583432 -0.069201186 0.21914893
-0.12575236 -0.069402747 0.21978724
-0.12572844 -0.069637887 0.22053191
-0.12564106 -0.069839448 0.22117022
-0.12549084 -0.070007414 0.22170213
-0.12521848 -0.07010819 0.22202128
-0.12482522 -0.070141785 0.22212766
-0.12437198 -0.070141785 0.22212766
-0.12385939 -0.07010819 0.22202128
-0.055613454 -0.049347837 0.1562766
-0.055294577 -0.049347837 0.1562766
-0.054938275 -0.049314246 0.15617022
-0.054582406 -0.049280647 0.15606382
-0.054189987 -0.049213465 0.15585107
-0.05379843 -0.049146276 0.15563829
-0.053407747 -0.049079094 0.15542553
-0.053017925 -0.049011905 0.15521276
-0.05270122 -0.049011905 0.15521276
-0.052456323 -0.049079094 0.15542553
-0.052210554 -0.049146276 0.15563829
-0.052034862 -0.049280647 0.15606382
-0.051822178 -0.049381427 0.15638298
-0.051608194 -0.049482208 0.15670213
-0.051323269 -0.049515799 0.15680851
-0.050899498 -0.049415018 0.15648936
-0.050339494 -0.049179874 0.15574469
-0.049714189 -0.048877534 0.15478723
-0.065404661 -0.073131539 0.23159574
-0.064902268 -0.073097952 0.23148936
-0.064429924 -0.073097952 0.23148936
-0.06407515 -0.073232323 0.23191489
-0.063806161 -0.073467471 0.23265958
-0.063621007 -0.073803402 0.2337234
-0.063316546 -0.074004956 0.23436171
-0.062866867 -0.07403855 0.23446809
-0.062331825 -0.073971361 0.23425531
0.040366188 -0.052673526 0.16680852
0.040420983 -0.052304003 0.1656383
0.040497188 -0.051968075 0.16457447
0.040621836 -0.051699333 0.16372341
0.040822845 -0.051531367 0.16319148
0.041102175 -0.051464181 0.16297872
0.041461773 -0.051497772 0.1630851
0.041849069 -0.051564962 0.16329788
0.042209756 -0.051598553 0.16340426
0.042543177 -0.051598553 0.16340426
0.042848684 -0.051564962 0.16329788
0.043153752 -0.051531367 0.16319148
0.043458391 -0.051497772 0.1630851
0.043848295 -0.051564962 0.16329788
0.04429663 -0.051699333 0.16372341
0.044717699 -0.051800109 0.16404255
0.15807481 -0.0822016 0.26031914
0.15847635 -0.082134418 0.26010638
0.15881199 -0.082033634 0.25978723
0.15901582 -0.081865676 0.25925532
0.15915202 -0.081664115 0.25861701
0.15948266 -0.081563331 0.25829786
0.16007562 -0.081596933 0.25840425
0.16073512 -0.081664115 0.25861701
-0.12617499 -0.06845364 0.21819149
-0.12585238 -0.068520389 0.21840425
-0.12565106 -0.068653889 0.21882978
-0.12556976 -0.068854146 0.21946809
-0.1255465 -0.069087781 0.22021277
-0.12545976 -0.06928803 0.22085106
-0.12524998 -0.069421537 0.2212766
-0.12497848 -0.069521666 0.22159575
-0.12464588 -0.069588415 0.22180851
-0.12425285 -0.069621786 0.22191489
-0.12385939 -0.069655165 0.22202128
-0.055651311 -0.049062334 0.15638298
-0.055294577 -0.049028959 0.1562766
-0.054900847 -0.048962206 0.15606382
-0.054545201 -0.048928831 0.15595745
-0.054189987 -0.048895456 0.15585107
-0.05379843 -0.048828702 0.15563829
-0.053407747 -0.048761953 0.15542553
-0.053054269 -0.048728578 0.15531915
-0.05270122 -0.048695199 0.15521276
-0.052420419 -0.048728578 0.15531915
-0.052210554 -0.048828702 0.15563829
-0.051999394 -0.048928831 0.15595745
-0.051786929 -0.049028959 0.1562766
-0.051573161 -0.049129087 0.15659575
-0.051218808 -0.049095709 0.15648936
-0.050761089 -0.048962206 0.15606382
-0.050167568 -0.048695199 0.15521276
-0.049577519 -0.048428193 0.1543617
-0.065284483 -0.072525479 0.23117021
-0.064872444 -0.072592229 0.23138298
-0.06451875 -0.072725736 0.23180851
-0.064251505 -0.072959363 0.2325532
-0.064010382 -0.073226362 0.23340425
-0.063707881 -0.073426627 0.23404256
-0.063287802 -0.073493369 0.23425531
-0.062752768 -0.073426627 0.23404256
-0.062190291 -0.073326491 0.2337234
0.040263213 -0.052199654 0.16638298
0.040369064 -0.051899273 0.16542554
0.040497188 -0.051632266 0.16457447
0.040621836 -0.05136526 0.16372341
0.040796235 -0.051165003 0.1630851
0.041075345 -0.051098254 0.16287234
0.041461773 -0.051165003 0.1630851
0.041876335 -0.051265132 0.16340426
0.042209756 -0.051265132 0.16340426
0.042515479 -0.051231757 0.16329788
0.042792853 -0.051165003 0.1630851
0.043069359 -0.051098254 0.16287234
0.043401696 -0.051098254 0.16287234
0.043762594 -0.051131628 0.16297872
0.044210281 -0.051265132 0.16340426
0.0446597 -0.051398635 0.16382979
0.15762262 -0.081436798 0.25957447
0.15821707 -0.081470169 0.25968084
0.15874694 -0.081470169 0.25968084
0.15908109 -0.081370048 0.25936171
0.1594139 -0.08126992 0.25904256
0.15981108 -0.081203163 0.25882977
0.16033922 -0.081203163 0.25882977
0.16093348 -0.081236541 0.25893617
0.16139548 -0.081203163 0.25882977
-0.1262365 -0.068041585 0.21829787
-0.12591368 -0.068107903 0.21851064
-0.12571216 -0.068240538 0.21893618
-0.12556976 -0.068406329 0.21946809
-0.12536454 -0.068538964 0.21989362
-0.12515759 -0.068671599 0.22031915
-0.12482847 -0.068737917 0.22053191
-0.12455848 -0.068837389 0.22085106
-0.12434697 -0.068970025 0.2212766
-0.12413372 -0.06910266 0.22170213
-0.12385939 -0.06920214 0.22202128
-0.17349838 -0.099111252 0.31797871
-0.17331219 -0.099376522 0.31882977
-0.055878457 -0.04894219 0.15702127
-0.055369858 -0.048776396 0.15648936
-0.054900847 -0.04864376 0.15606382
-0.054507993 -0.048577446 0.15585107
-0.054152999 -0.048544291 0.15574469
-0.053835206 -0.048544291 0.15574469
-0.0534443 -0.04847797 0.15553191
-0.053054269 -0.048411656 0.15531915
-0.052737344 -0.048411656 0.15531915
-0.052456323 -0.048444811 0.15542553
-0.052210554 -0.048511129 0.15563829
-0.051963925 -0.048577446 0.15585107
-0.051751677 -0.048676923 0.15617022
-0.051503085 -0.048743241 0.15638298
-0.051149175 -0.048710082 0.1562766
-0.050657287 -0.048544291 0.15574469
-0.050098799 -0.048312176 0.155
-0.049577519 -0.048113223 0.1543617
-0.065104224 -0.07185483 0.23053192
-0.064693481 -0.071921147 0.23074467
-0.064429924 -0.072153255 0.23148936
-0.064251505 -0.072484851 0.2325532
-0.064068735 -0.072816432 0.23361702
-0.063736841 -0.072982222 0.23414893
-0.063230328 -0.072949067 0.23404256
-0.06263867 -0.072816432 0.23361702
-0.062077064 -0.072716951 0.23329787
-0.06154485 -0.072650641 0.23308511
0.040291183 -0.051462252 0.16510639
0.040444829 -0.05123014 0.1643617
0.040595438 -0.050998028 0.16361701
0.040743012 -0.05076592 0.16287234
0.041021686 -0.050699599 0.16265957
0.041434728 -0.050799076 0.16297872
0.041849069 -0.050898556 0.16329788
0.042182274 -0.050898556 0.16329788
0.04246008 -0.050832234 0.1630851
0.042737026 -0.05076592 0.16287234
0.043013096 -0.050699599 0.16265957
0.043344997 -0.050699599 0.16265957
0.043705467 -0.050732762 0.16276596
0.044152711 -0.050865393 0.16319148
0.0446597 -0.051064346 0.16382979
0.045081642 -0.051163822 0.16414894
0.15821707 -0.080940299 0.25968084
0.15894206 -0.081039779 0.25999999
0.15953784 -0.081072941 0.26010638
0.15987216 -0.080973461 0.25978723
0.1602052 -0.080873989 0.25946808
0.16060284 -0.080807671 0.25925532
0.16093348 -0.080708191 0.25893617
0.16119649 -0.080575563 0.25851065
-0.12629801 -0.067629091 0.21840425
-0.12603627 -0.067727923 0.2187234
-0.12583432 -0.067859687 0.21914893
-0.12556976 -0.067958511 0.21946809
-0.12530389 -0.068057336 0.21978724
-0.12485543 -0.068057336 0.21978724
-0.12446717 -0.068090282 0.21989362
-0.12419849 -0.068189107 0.22021277
-0.1242274 -0.068452634 0.22106382
-0.12431242 -0.068749115 0.22202128
-0.12427482 -0.068979703 0.22276595
-0.17407885 -0.098791845 0.31904256
-0.056143463 -0.048852384 0.15776595
-0.055445142 -0.048522972 0.15670213
-0.054863427 -0.04829238 0.15595745
-0.054470789 -0.048226498 0.15574469
-0.054116003 -0.048193552 0.15563829
-0.05379843 -0.048193552 0.15563829
-0.053407747 -0.048127674 0.15542553
-0.053054269 -0.048094731 0.15531915
-0.052737344 -0.048094731 0.15531915
-0.052420419 -0.048094731 0.15531915
-0.052139182 -0.048127674 0.15542553
-0.051892981 -0.048193552 0.15563829
-0.051645916 -0.048259437 0.15585107
-0.051397976 -0.048325319 0.15606382
-0.051079534 -0.048325319 0.15606382
-0.050622683 -0.048193552 0.15563829
-0.050133184 -0.048028845 0.15510638
-0.049714189 -0.047930021 0.15478723
-0.064954013 -0.071219727 0.23
-0.06454435 -0.071285613 0.23021276
-0.064281881 -0.071516201 0.23095745
-0.064133935 -0.071878567 0.23212767
-0.063981213 -0.072240919 0.23329787
-0.06364996 -0.072405629 0.23382978
-0.063144103 -0.072372682 0.2337234
-0.062524579 -0.07220798 0.23319149
-0.061935529 -0.072076209 0.23276596
-0.0614044 -0.072010331 0.2325532
0.040418651 -0.050861824 0.16425532
0.040569045 -0.050631233 0.16351064
0.040716399 -0.050400645 0.16276596
0.040968031 -0.050301816 0.16244681
0.041380636 -0.050400645 0.16276596
0.041821804 -0.050532404 0.16319148
0.042154793 -0.050532404 0.16319148
0.042404689 -0.050433584 0.16287234
0.042681195 -0.050367698 0.16265957
0.042984966 -0.050334759 0.16255319
0.043316647 -0.050334759 0.16255319
0.043676898 -0.050367698 0.16265957
0.044095147 -0.050466526 0.16297872
0.0445727 -0.050631233 0.16351064
0.045023207 -0.050763 0.16393617
0.15867081 -0.080641031 0.26042554
0.15946232 -0.080772787 0.26085106
0.16019033 -0.080871619 0.26117021
0.16052684 -0.080772787 0.26085106
0.16066501 -0.080575146 0.26021278
0.16066875 -0.080311611 0.25936171
0.16073512 -0.080081016 0.25861701
0.16079848 -0.079850428 0.25787234
0.16092533 -0.079652779 0.25723404
-0.12686715 -0.067248896 0.21861702
-0.12648258 -0.067281619 0.2187234
-0.12628148 -0.067412518 0.21914893
-0.12607867 -0.067543417 0.21957447
-0.12575236 -0.067608871 0.21978724
-0.12530389 -0.067608871 0.21978724
-0.12473456 -0.067543417 0.21957447
-0.12422631 -0.067510694 0.21946809
-0.12407848 -0.067674316 0.22
-0.1242274 -0.068001561 0.22106382
-0.12455068 -0.068426982 0.22244681
-0.12480896 -0.068819679 0.22372341
-0.056846134 -0.048857719 0.15882979
-0.056257039 -0.048628643 0.15808511
-0.055520419 -0.048268672 0.15691489
-0.054826003 -0.047941428 0.15585107
-0.054396372 -0.047843255 0.15553191
-0.054042026 -0.047810532 0.15542553
-0.053688116 -0.047777809 0.15531915
-0.053371191 -0.047777809 0.15531915
-0.053017925 -0.047745079 0.15521276
-0.05270122 -0.047745079 0.15521276
-0.052384511 -0.047745079 0.15521276
-0.052103497 -0.047777809 0.15531915
-0.051822044 -0.047810532 0.15542553
-0.051575407 -0.047875978 0.15563829
-0.051327907 -0.047941428 0.15585107
-0.051044714 -0.047974154 0.15595745
-0.050657287 -0.047908705 0.15574469
-0.050201956 -0.047777809 0.15531915
-0.049816694 -0.047712356 0.15510638
-0.064484701 -0.070750423 0.23
-0.064193048 -0.070946768 0.2306383
-0.064016365 -0.07127402 0.23170213
-0.06383533 -0.071601257 0.23276596
-0.063476212 -0.071732156 0.23319149
-0.062971659 -0.071699433 0.23308511
-0.062353436 -0.071535811 0.2325532
-0.061793994 -0.071437642 0.23223405
-0.061292041 -0.071404912 0.23212767
0.040366296 -0.050461214 0.16404255
0.040569045 -0.050297592 0.16351064
0.040689785 -0.050035797 0.16265957
0.040941201 -0.049937628 0.16234043
0.041353587 -0.050035797 0.16265957
0.041740019 -0.050101247 0.16287234
0.042072352 -0.050101247 0.16287234
0.042349294 -0.050035797 0.16265957
0.042625368 -0.049970351 0.16244681
0.042928703 -0.049937628 0.16234043
0.043288302 -0.049970351 0.16244681
0.043619767 -0.049970351 0.16244681
0.044037584 -0.050068524 0.16276596
0.044485699 -0.050199419 0.16319148
0.044877123 -0.050264869 0.16340426
0.15938379 -0.080469608 0.26159576
0.16004764 -0.080535054 0.26180851
0.16058184 -0.080535054 0.26180851
0.16078871 -0.080371432 0.2612766
0.16073067 -0.080076911 0.26031914
0.16053693 -0.079716936 0.25914893
0.16040452 -0.079389699 0.2580851
0.16040045 -0.0791279 0.25723404
0.16052601 -0.078931548 0.25659573
-0.12705235 -0.066900343 0.21893618
-0.12672865 -0.066965356 0.21914893
-0.12658799 -0.067127891 0.21968085
-0.12644517 -0.067290433 0.22021277
-0.12611757 -0.067355447 0.22042553
-0.1255465 -0.067290433 0.22021277
-0.12479499 -0.067127891 0.21968085
-0.12422631 -0.067062877 0.21946809
-0.12401849 -0.067192905 0.21989362
-0.1242274 -0.067550488 0.22106382
-0.12466981 -0.068038099 0.22265957
-0.12504634 -0.068493202 0.22414893
-0.12494377 -0.068688251 0.22478724
-0.056846134 -0.04853363 0.15882979
-0.056257039 -0.048306078 0.15808511
-0.055445142 -0.047883481 0.15670213
-0.054751154 -0.047558405 0.15563829
-0.054284751 -0.047428373 0.15521276
-0.053931057 -0.047395866 0.15510638
-0.053614568 -0.047395866 0.15510638
-0.053261522 -0.047363359 0.155
-0.052945249 -0.047363359 0.155
-0.052628979 -0.047363359 0.155
-0.052312706 -0.047363359 0.155
-0.052032121 -0.047395866 0.15510638
-0.051786572 -0.047460884 0.15531915
-0.051540155 -0.047525898 0.15553191
-0.05129287 -0.047590915 0.15574469
-0.051009897 -0.047623422 0.15585107
-0.050657287 -0.047590915 0.15574469
-0.050236341 -0.047493391 0.15542553
-0.049885031 -0.047460884 0.15531915
-0.064514525 -0.070313625 0.23010638
-0.064193048 -0.070476159 0.2306383
-0.063957579 -0.070736222 0.23148936
-0.063689455 -0.07096377 0.23223405
-0.063244551 -0.070996277 0.23234043
-0.06271299 -0.070931263 0.23212767
-0.06206819 -0.070736222 0.23148936
-0.061510924 -0.070638694 0.23117021
0.040392473 -0.050159004 0.16414894
0.040569045 -0.049963955 0.16351064
0.040716399 -0.049736407 0.16276596
0.040914372 -0.049573865 0.16223404
0.041272454 -0.049606375 0.16234043
0.041658226 -0.049671389 0.16255319
0.041989911 -0.049671389 0.16255319
0.042293899 -0.049638882 0.16244681
0.042597454 -0.049606375 0.16234043
0.042928703 -0.049606375 0.16234043
0.043259952 -0.049606375 0.16234043
0.043591205 -0.049606375 0.16234043
0.043951236 -0.049638882 0.16244681
0.0443407 -0.049703896 0.16265957
0.04473104 -0.049768914 0.16287234
0.16024274 -0.080098368 0.26212767
0.16058184 -0.080000848 0.26180851
0.16059232 -0.079740785 0.26095745
0.16040225 -0.079383202 0.25978723
0.16020742 -0.079025619 0.25861701
0.16014005 -0.078733057 0.25765958
0.16026779 -0.078538008 0.25702128
0.16045946 -0.078375474 0.25648937
0.16091605 -0.078342959 0.25638297
-0.12729929 -0.066582769 0.21936171
-0.12703624 -0.066679642 0.21968085
-0.12695581 -0.066873387 0.22031915
-0.12681167 -0.067034833 0.22085106
-0.1264219 -0.067067124 0.22095744
-0.12578911 -0.066970259 0.2206383
-0.12497629 -0.066776514 0.22
-0.12428652 -0.066647351 0.21957447
-0.12395849 -0.066711932 0.21978724
-0.12404806 -0.067002542 0.22074468
-0.12443154 -0.067454606 0.22223404
-0.12474961 -0.067874387 0.22361702
-0.056617681 -0.048015799 0.15819149
-0.05606775 -0.047822058 0.1575532
-0.055332217 -0.047466863 0.15638298
-0.054638885 -0.047143962 0.15531915
-0.054173134 -0.047014799 0.15489362
-0.053820085 -0.046982504 0.15478723
-0.053504247 -0.046982504 0.15478723
-0.05318841 -0.046982504 0.15478723
-0.052872572 -0.046982504 0.15478723
-0.052556735 -0.046982504 0.15478723
-0.052276801 -0.047014799 0.15489362
-0.051996432 -0.04704709 0.155
-0.0517511 -0.047111668 0.15521276
-0.051540155 -0.04720854 0.15553191
-0.05129287 -0.047273122 0.15574469
-0.051009897 -0.047305413 0.15585107
-0.050622683 -0.047240827 0.15563829
-0.050201956 -0.047143962 0.15531915
-0.049816694 -0.047079377 0.15510638
-0.064693481 -0.070037842 0.23074467
-0.064281881 -0.070102423 0.23095745
-0.063928187 -0.070231587 0.23138298
-0.06354358 -0.070328459 0.23170213
-0.063012883 -0.07026387 0.23148936
-0.062396836 -0.070102423 0.23095745
-0.061811477 -0.06997326 0.23053192
-0.061256163 -0.069876388 0.23021276
0.040366296 -0.049791768 0.16404255
0.040542651 -0.049598027 0.16340426
0.040689785 -0.049371995 0.16265957
0.040887542 -0.049210545 0.16212766
0.041164268 -0.049145963 0.1619149
0.041521911 -0.049178254 0.16202128
0.041879989 -0.049210545 0.16212766
0.042183109 -0.049178254 0.16202128
0.042541623 -0.049210545 0.16212766
0.04287244 -0.049210545 0.16212766
0.043203253 -0.049210545 0.16212766
0.04353407 -0.049210545 0.16212766
0.043836106 -0.049178254 0.16202128
0.044195704 -0.049210545 0.16212766
0.044555735 -0.049242832 0.16223404
0.15998259 -0.079434343 0.26170212
0.16005984 -0.079208307 0.26095745
0.15993764 -0.078885406 0.25989363
0.15981108 -0.078562498 0.25882977
0.15981202 -0.078304179 0.25797874
0.1600078 -0.078142725 0.2574468
0.16026779 -0.078013569 0.25702128
0.16065912 -0.077948987 0.25680852
0.16111635 -0.077916697 0.25670213
-0.12754624 -0.066263467 0.21978724
-0.12728232 -0.066359684 0.22010638
-0.12720102 -0.066552125 0.22074468
-0.12699494 -0.066680416 0.22117022
-0.12660451 -0.066712491 0.2212766
-0.1259104 -0.066584192 0.22085106
-0.12509716 -0.066391759 0.22021277
-0.12440696 -0.066263467 0.21978724
-0.12395849 -0.066263467 0.21978724
-0.12380893 -0.066423833 0.22031915
-0.12389546 -0.066712491 0.2212766
-0.12403743 -0.067033224 0.22234042
-0.056351155 -0.047468498 0.1574468
-0.0558406 -0.047308136 0.15691489
-0.055181652 -0.047019474 0.15595745
-0.054564036 -0.046762887 0.15510638
-0.054098718 -0.046634596 0.15468085
-0.053746108 -0.046602521 0.15457447
-0.053393934 -0.04657045 0.15446809
-0.053115301 -0.046602521 0.15457447
-0.052799895 -0.046602521 0.15457447
-0.052484494 -0.046602521 0.15457447
-0.052240893 -0.046666667 0.15478723
-0.051960748 -0.046698745 0.15489362
-0.0517511 -0.046794962 0.15521276
-0.051540155 -0.046891183 0.15553191
-0.051327907 -0.046987403 0.15585107
-0.051009897 -0.046987403 0.15585107
-0.050553478 -0.046859108 0.15542553
-0.050064415 -0.046698745 0.15489362
-0.064723313 -0.069599092 0.23085107
-0.064311489 -0.069663234 0.23106383
-0.063898794 -0.069727384 0.2312766
-0.063397706 -0.069695309 0.23117021
-0.062810175 -0.06956701 0.23074467
-0.062224384 -0.069438718 0.23031914
-0.061668858 -0.069342501 0.23
-0.06119955 -0.069342501 0.23
0.040031571 -0.049457047 0.16404255
0.04031394 -0.049392901 0.16382979
0.040489856 -0.04920046 0.16319148
0.040663175 -0.049008019 0.16255319
0.040833887 -0.048815582 0.1619149
0.041083127 -0.048719361 0.16159575
0.04141286 -0.048719361 0.16159575
0.041770067 -0.048751432 0.16170213
0.042100016 -0.048751432 0.16170213
0.042457879 -0.048783507 0.16180851
0.042816177 -0.048815582 0.1619149
0.043118209 -0.048783507 0.16180851
0.043419808 -0.048751432 0.16170213
0.043720972 -0.048719361 0.16159575
0.044050705 -0.048719361 0.16159575
0.044380434 -0.048719361 0.16159575
0.15921158 -0.078258879 0.25957447
0.15921749 -0.078002296 0.25872341
0.15921994 -0.077745706 0.25787234
0.15948249 -0.077617414 0.2574468
0.15987557 -0.077553265 0.25723404
0.16040045 -0.077553265 0.25723404
0.16085878 -0.077521197 0.25712767
0.16124989 -0.077457048 0.25691488
-0.12773144 -0.065910563 0.22010638
-0.12740536 -0.065974273 0.22031915
-0.12726231 -0.066133559 0.22085106
-0.12693384 -0.066197269 0.22106382
-0.12648277 -0.066197269 0.22106382
-0.12578911 -0.066069849 0.2206383
-0.12515759 -0.065974273 0.22031915
-0.1245876 -0.065910563 0.22010638
-0.12413848 -0.065910563 0.22010638
-0.12380893 -0.065974273 0.22031915
-0.12353808 -0.066069849 0.2206383
-0.055613454 -0.046796817 0.1562766
-0.055068728 -0.04660568 0.15563829
-0.054526612 -0.046414543 0.155
-0.054061513 -0.046287119 0.15457447
-0.053672127 -0.046223402 0.1543617
-0.053357158 -0.046223402 0.1543617
-0.053042188 -0.046223402 0.1543617
-0.052727215 -0.046223402 0.1543617
-0.052448373 -0.046255264 0.15446809
-0.052169088 -0.046287119 0.15457447
-0.051925056 -0.046350829 0.15478723
-0.051715631 -0.046446398 0.15510638
-0.051504903 -0.04654197 0.15542553
-0.05129287 -0.046637539 0.15574469
-0.050940257 -0.04660568 0.15563829
-0.050449673 -0.046446398 0.15510638
-0.050133184 -0.046446398 0.15510638
-0.064604007 -0.069000617 0.23042554
-0.064193048 -0.069064327 0.2306383
-0.063751832 -0.069096185 0.23074467
-0.063310184 -0.069128044 0.23085107
-0.062781222 -0.069064327 0.2306383
-0.062253129 -0.069000617 0.23042554
-0.061754428 -0.068968758 0.23031914
-0.061256163 -0.068936907 0.23021276
0.040235404 -0.04896304 0.16351064
0.040489856 -0.048867472 0.16319148
0.040689785 -0.048708193 0.16265957
0.040860713 -0.048517056 0.16202128
0.041110173 -0.048421487 0.16170213
0.041385595 -0.048357777 0.16148937
0.041715112 -0.048357777 0.16148937
0.042044625 -0.048357777 0.16148937
0.042374138 -0.048357777 0.16148937
0.042675517 -0.048325915 0.16138297
0.042976465 -0.04829406 0.16127659
0.043276981 -0.048262205 0.16117021
0.04357706 -0.04823035 0.16106384
0.043905705 -0.04823035 0.16106384
0.04423435 -0.04823035 0.16106384
0.15856282 -0.077155821 0.25765958
0.15876015 -0.076996535 0.25712767
0.15915298 -0.076932818 0.25691488
0.15974334 -0.076964676 0.25702128
0.16040045 -0.077028386 0.25723404
0.16085878 -0.076996535 0.25712767
0.16118313 -0.076900966 0.25680852
0.16157316 -0.076837249 0.25659573
-0.12797838 -0.065587997 0.22053191
-0.12758993 -0.06561964 0.2206383
-0.12720102 -0.065651283 0.22074468
-0.12675059 -0.065651283 0.22074468
-0.1262393 -0.06561964 0.2206383
-0.12572844 -0.065587997 0.22053191
-0.12527846 -0.065587997 0.22053191
-0.1249489 -0.065651283 0.22074468
-0.12455848 -0.065682918 0.22085106
-0.12410784 -0.065682918 0.22085106
-0.1236572 -0.065682918 0.22085106
-0.055462021 -0.046351384 0.15585107
-0.054993447 -0.046224829 0.15542553
-0.054489188 -0.046066634 0.15489362
-0.054061513 -0.045971714 0.15457447
-0.053672127 -0.045908432 0.1543617
-0.053320386 -0.045876797 0.15425532
-0.053005632 -0.045876797 0.15425532
-0.052690879 -0.045876797 0.15425532
-0.052412245 -0.045908432 0.1543617
-0.052133184 -0.045940075 0.15446809
-0.051889371 -0.046003353 0.15468085
-0.051680163 -0.04609827 0.155
-0.05146965 -0.04619319 0.15531915
-0.051222797 -0.046256468 0.15553191
-0.050835803 -0.04619319 0.15531915
-0.050311264 -0.046003353 0.15468085
-0.050408263 -0.046383023 0.15595745
-0.06433557 -0.068245694 0.22946809
-0.063926563 -0.068308972 0.22968085
-0.063604869 -0.068467163 0.23021276
-0.063222654 -0.068562083 0.23053192
-0.062810175 -0.068625361 0.23074467
-0.062368095 -0.068657003 0.23085107
-0.061868522 -0.068625361 0.23074467
-0.061369389 -0.068593718 0.2306383
0.04020923 -0.048597764 0.16340426
0.040489856 -0.048534486 0.16319148
0.040743012 -0.04843957 0.16287234
0.040968031 -0.048313014 0.16244681
0.041191313 -0.048186459 0.16202128
0.041467384 -0.048123177 0.16180851
0.041770067 -0.048091538 0.16170213
0.042044625 -0.04802826 0.16148937
0.042290393 -0.047933344 0.16117021
0.042562991 -0.047870062 0.16095744
0.042806376 -0.047775149 0.1606383
0.043105584 -0.047743507 0.16053191
0.043433145 -0.047743507 0.16053191
0.043789707 -0.047775149 0.1606383
0.044146698 -0.047806788 0.16074468
0.15817 -0.076440237 0.25702128
0.15849739 -0.076345317 0.25670213
0.15895528 -0.076313674 0.25659573
0.15961111 -0.07637696 0.25680852
0.16026779 -0.076440237 0.25702128
0.16079222 -0.076440237 0.25702128
0.16111635 -0.076345317 0.25670213
0.16143918 -0.076250397 0.25638297
-0.12841053 -0.065357968 0.2212766
-0.12777448 -0.065263696 0.22095744
-0.12720102 -0.065200858 0.22074468
-0.12656733 -0.065106593 0.22042553
-0.1260567 -0.065075167 0.22031915
-0.1256678 -0.065106593 0.22042553
-0.12539932 -0.065200858 0.22074468
-0.12524998 -0.065357968 0.2212766
-0.12497848 -0.065452233 0.22159575
-0.1245861 -0.065483652 0.22170213
-0.12407416 -0.065452233 0.22159575
-0.055272732 -0.045876268 0.15531915
-0.054880526 -0.045813419 0.15510638
-0.05445176 -0.045719154 0.15478723
-0.053987097 -0.045593463 0.1543617
-0.053635139 -0.045562044 0.15425532
-0.053283613 -0.045530621 0.15414894
-0.052969079 -0.045530621 0.15414894
-0.052690879 -0.045562044 0.15425532
-0.052412245 -0.045593463 0.1543617
-0.052133184 -0.045624889 0.15446809
-0.051889371 -0.045687731 0.15468085
-0.051644694 -0.045750577 0.15489362
-0.051434394 -0.045844842 0.15521276
-0.051152725 -0.045876268 0.15531915
-0.050766163 -0.045813419 0.15510638
-0.050172858 -0.045562044 0.15425532
-0.050889648 -0.046504706 0.1574468
-0.064037301 -0.067463249 0.22840425
-0.063689694 -0.067588933 0.22882979
-0.063428521 -0.067808889 0.22957447
-0.063135125 -0.067997418 0.23021276
-0.062752262 -0.068091691 0.23053192
-0.062281869 -0.068091691 0.23053192
-0.061754428 -0.068028845 0.23031914
-0.061256163 -0.067997418 0.23021276
0.040156871 -0.048201498 0.16319148
0.040489856 -0.048201498 0.16319148
0.040769622 -0.048138656 0.16297872
0.041048519 -0.048075814 0.16276596
0.041299496 -0.047981545 0.16244681
0.041576438 -0.0479187 0.16223404
0.041797549 -0.047793012 0.16180851
0.042016923 -0.047667325 0.16138297
0.042206649 -0.047510214 0.16085106
0.042422332 -0.047384527 0.16042553
0.042692982 -0.047321681 0.16021277
0.042991322 -0.047290258 0.16010638
0.0433468 -0.047321681 0.16021277
0.043702707 -0.047353104 0.16031915
0.044088263 -0.047415946 0.16053191
0.044474695 -0.047478791 0.16074468
0.15836602 -0.075758681 0.25648937
0.15882348 -0.075727254 0.25638297
0.15941274 -0.075758681 0.25648937
0.16013511 -0.075852953 0.25680852
0.16072567 -0.075884365 0.25691488
0.16111635 -0.075821526 0.25670213
0.1613052 -0.075664416 0.25617021
-0.12871921 -0.065062486 0.22180851
-0.12802054 -0.064937666 0.22138298
-0.12732361 -0.064812846 0.22095744
-0.12656733 -0.064656816 0.22042553
-0.12599583 -0.06459441 0.22021277
-0.12560715 -0.064625613 0.22031915
-0.12545976 -0.064781636 0.22085106
-0.1253102 -0.064937666 0.22138298
-0.12509847 -0.065062486 0.22180851
-0.12470566 -0.065093689 0.22191489
-0.12425285 -0.065093689 0.22191489
-0.055159155 -0.045465726 0.155
-0.054805245 -0.045434523 0.15489362
-0.054376915 -0.045340907 0.15457447
-0.053949889 -0.04524729 0.15425532
-0.053561162 -0.04518488 0.15404256
-0.053210072 -0.045153677 0.15393618
-0.052932523 -0.04518488 0.15404256
-0.052654542 -0.045216087 0.15414894
-0.052412245 -0.045278493 0.1543617
-0.052133184 -0.045309704 0.15446809
-0.051889371 -0.04537211 0.15468085
-0.051644694 -0.045434523 0.15489362
-0.051399142 -0.045496929 0.15510638
-0.051152725 -0.045559343 0.15531915
-0.050696526 -0.045434523 0.15489362
-0.050069053 -0.045153677 0.15393618
-0.06382852 -0.066778757 0.22765957
-0.063482426 -0.066903576 0.2280851
-0.063193381 -0.067090809 0.22872341
-0.062901728 -0.067278042 0.2293617
-0.062462684 -0.067309245 0.22946809
-0.061908238 -0.067215629 0.22914894
-0.061269518 -0.067028396 0.22851063
-0.060690023 -0.066903576 0.2280851
0.040463462 -0.047837306 0.1630851
0.040769622 -0.047806103 0.16297872
0.041048519 -0.047743697 0.16276596
0.041326541 -0.047681283 0.16255319
0.041576438 -0.047587667 0.16223404
0.041770067 -0.047431644 0.16170213
0.041933835 -0.047244415 0.16106384
0.042122904 -0.047088385 0.16053191
0.042366073 -0.046994776 0.16021277
0.042636283 -0.046932362 0.16
0.042962756 -0.046932362 0.16
0.043318015 -0.046963565 0.16010638
0.043673709 -0.046994776 0.16021277
0.044059049 -0.047057182 0.16042553
0.044445261 -0.047119595 0.1606383
0.15823466 -0.075172916 0.25627661
0.15862577 -0.075110503 0.25606382
0.15914826 -0.075110503 0.25606382
0.15980344 -0.075172916 0.25627661
0.16052601 -0.075266525 0.25659573
0.16104957 -0.075266525 0.25659573
0.1613052 -0.075141706 0.25617021
0.1614919 -0.074985683 0.2556383
-0.12929572 -0.064671867 0.22202128
-0.12878095 -0.06464088 0.22191489
-0.12814359 -0.064547919 0.22159575
-0.12738492 -0.064392976 0.22106382
-0.12662841 -0.064238034 0.22053191
-0.12593496 -0.064114079 0.22010638
-0.1255465 -0.064145073 0.22021277
-0.1253389 -0.064269029 0.2206383
-0.12512955 -0.064392976 0.22106382
-0.12485848 -0.064485937 0.22138298
-0.12446653 -0.064516924 0.22148935
-0.12401459 -0.064516924 0.22148935
-0.055007726 -0.045025501 0.15457447
-0.05465468 -0.044994514 0.15446809
-0.054264642 -0.044932537 0.15425532
-0.053838275 -0.044839576 0.15393618
-0.05345019 -0.044777598 0.1537234
-0.053136524 -0.044777598 0.1537234
-0.052822854 -0.044777598 0.1537234
-0.052581869 -0.044839576 0.15393618
-0.052376125 -0.044932537 0.15425532
-0.052133184 -0.044994514 0.15446809
-0.051889371 -0.045056488 0.15468085
-0.051644694 -0.045118466 0.15489362
-0.051434394 -0.045211427 0.15521276
-0.051152725 -0.045242418 0.15531915
-0.050696526 -0.045118466 0.15489362
-0.049965248 -0.044746611 0.15361702
-0.063739039 -0.066221267 0.22734043
-0.063334376 -0.066283241 0.22755319
-0.062987633 -0.066407189 0.22797872
-0.062609978 -0.066500157 0.22829787
-0.062028307 -0.066376202 0.22787234
-0.061362155 -0.066159286 0.22712766
-0.060584947 -0.065818422 0.22595745
-0.059982352 -0.065663479 0.22542553
0.040410675 -0.047442563 0.16287234
0.040716399 -0.047411576 0.16276596
0.04099486 -0.047349598 0.16255319
0.041272454 -0.047287624 0.16234043
0.041494649 -0.047163673 0.1619149
0.041687626 -0.04700873 0.16138297
0.041850742 -0.046822805 0.16074468
0.042039163 -0.046667866 0.16021277
0.042309806 -0.046605889 0.16
0.042636283 -0.046605889 0.16
0.042991322 -0.046636872 0.16010638
0.0433468 -0.046667866 0.16021277
0.043702707 -0.046698853 0.16031915
0.044059049 -0.04672984 0.16042553
0.044415824 -0.046760827 0.16053191
0.044743385 -0.046760827 0.16053191
0.15836217 -0.07446406 0.2556383
0.15881766 -0.074433073 0.25553191
0.15940541 -0.07446406 0.2556383
0.16019323 -0.074588008 0.25606382
0.16091605 -0.074680977 0.25638297
0.16123822 -0.074588008 0.25606382
0.16142468 -0.074433073 0.25553191
-0.1291718 -0.0641573 0.22180851
-0.12871921 -0.0641573 0.22180851
-0.12814359 -0.064095758 0.22159575
-0.12738492 -0.063941903 0.22106382
-0.12656733 -0.063757278 0.22042553
-0.12581323 -0.063603424 0.21989362
-0.12536454 -0.063603424 0.21989362
-0.12503672 -0.063664965 0.22010638
-0.12476825 -0.063757278 0.22042553
-0.12443849 -0.06381882 0.2206383
-0.12416762 -0.063911133 0.22095744
-0.12377632 -0.063941903 0.22106382
-0.17378862 -0.092128038 0.31851065
-0.17308088 -0.092097268 0.31840426
-0.17237356 -0.092066489 0.31829786
-0.17172408 -0.092066489 0.31829786
-0.055208903 -0.044617783 0.15425532
-0.054894149 -0.044617783 0.15425532
-0.054541755 -0.044587016 0.15414894
-0.054152377 -0.044525474 0.15393618
-0.053763859 -0.044463933 0.1537234
-0.053376213 -0.044402391 0.15351065
-0.053026203 -0.044371616 0.15340425
-0.052749746 -0.044402391 0.15351065
-0.052509189 -0.044463933 0.1537234
-0.052303884 -0.044556245 0.15404256
-0.052061375 -0.044617783 0.15425532
-0.051853683 -0.0447101 0.15457447
-0.051609218 -0.044771638 0.15478723
-0.051399142 -0.04486395 0.15510638
-0.051117688 -0.044894721 0.15521276
-0.050661705 -0.044771638 0.15478723
-0.049930647 -0.044402391 0.15351065
-0.063709214 -0.065726608 0.22723404
-0.063275158 -0.065757386 0.22734043
-0.062811278 -0.065757386 0.22734043
-0.062289048 -0.065695845 0.22712766
-0.061622895 -0.065480448 0.22638299
-0.060873557 -0.065172739 0.22531915
-0.060042989 -0.064772718 0.22393617
-0.059416216 -0.064588092 0.22329788
0.030274017 -0.067480557 0.23329787
0.030609835 -0.067172848 0.23223405
0.030955551 -0.06689591 0.2312766
0.040636562 -0.046987146 0.16244681
0.040887542 -0.04689483 0.16212766
0.041164268 -0.046833292 0.1619149
0.041385595 -0.046710208 0.16148937
0.041550227 -0.046525579 0.16085106
0.041739952 -0.046371724 0.16031915
0.041983332 -0.046279412 0.16
0.042337939 -0.046310183 0.16010638
0.042692982 -0.046340957 0.16021277
0.043048456 -0.046371724 0.16031915
0.043375582 -0.046371724 0.16031915
0.043702707 -0.046371724 0.16031915
0.044029832 -0.046371724 0.16031915
0.044356957 -0.046371724 0.16031915
0.044654433 -0.046340957 0.16021277
0.15828872 -0.0736655 0.25468084
0.15894106 -0.073727049 0.25489363
0.15979393 -0.073880903 0.25542554
0.16064897 -0.074034758 0.25595745
0.16117124 -0.074034758 0.25595745
0.16142468 -0.073911667 0.25553191
0.16174382 -0.073819354 0.25521275
-0.128924 -0.063582487 0.22138298
-0.128534 -0.063613042 0.22148935
-0.12795903 -0.06355194 0.2212766
-0.12726231 -0.063429721 0.22085106
-0.12644517 -0.063246399 0.22021277
-0.12563062 -0.063063078 0.21957447
-0.12512194 -0.063032523 0.21946809
