# .PCD v0.7 - Point Cloud Data file format
VERSION 0.7
FIELDS x y z
SIZE 4 4 4
TYPE F F F
COUNT 1 1 1
WIDTH 1356
HEIGHT 1
VIEWPOINT 0 0 0 1 0 0 0
POINTS 1356
DATA ascii
0.092792071 -0.042193651 0.25606382
0.093081959 -0.042088479 0.25542554
0.093408227 -0.04200083 0.25489363
0.09377151 -0.041930709 0.25446808
0.094133072 -0.041860595 0.25404257
0.094453245 -0.041772943 0.25351062
0.094811119 -0.041702826 0.25308511
0.095167257 -0.041632712 0.25265959
0.095602214 -0.041597646 0.2524468
0.096036322 -0.041562591 0.25223404
0.096428826 -0.041510001 0.25191489
0.096779101 -0.041439883 0.25148937
0.097045317 -0.041334704 0.25085106
0.097226188 -0.041194469 0.25
0.097403586 -0.04105423 0.24914894
0.097619317 -0.040931523 0.24840425
0.097874038 -0.040826347 0.24776596
0.098168388 -0.040738702 0.24723405
0.09846057 -0.040651053 0.24670213
0.098793261 -0.040580936 0.2462766
0.099081308 -0.040493287 0.24574468
0.099453419 -0.040440697 0.24542554
0.09982422 -0.040388107 0.24510638
0.10019372 -0.040335521 0.24478723
0.10051816 -0.0402654 0.2443617
0.10079689 -0.040177755 0.24382979
0.10102925 -0.040072579 0.2431915
0.10125899 -0.039967399 0.24255319
0.1015754 -0.039897282 0.24212766
0.10193491 -0.039844692 0.2418085
0.10229313 -0.039792106 0.24148937
0.10255948 -0.039704457 0.24095745
0.10286916 -0.03963434 0.24053192
0.10313138 -0.039546691 0.23999999
0.10343736 -0.03947657 0.23957446
0.10374162 -0.039406452 0.23914893
0.10399777 -0.039318804 0.23861702
0.10420516 -0.039213628 0.23797873
0.10440995 -0.039108451 0.23734042
0.10465916 -0.039020803 0.23680851
0.10495342 -0.038950685 0.23638298
0.10529339 -0.038898095 0.23606382
0.10567974 -0.038863037 0.23585106
0.10601733 -0.038810447 0.23553191
0.10635363 -0.038757861 0.23521277
0.10664029 -0.038687743 0.23478724
0.10682815 -0.038582563 0.23414893
0.10696465 -0.038459856 0.23340425
0.10714708 -0.03835468 0.23276596
0.10737609 -0.038267031 0.23223405
0.10770175 -0.038214441 0.23191489
0.10807572 -0.038179386 0.23170213
0.10849866 -0.038161855 0.23159574
0.10887111 -0.038126796 0.23138298
0.10919242 -0.038074207 0.23106383
0.10946194 -0.038004089 0.2306383
0.10972972 -0.037933968 0.23021276
0.10994484 -0.037846323 0.22968085
0.11010665 -0.037741147 0.22904256
0.11026586 -0.037635967 0.22840425
0.11047404 -0.037548319 0.22787234
0.11068004 -0.037460674 0.22734043
0.11093588 -0.037390556 0.2269149
0.11118999 -0.037320435 0.22648937
0.11154725 -0.037285376 0.22627659
0.11185098 -0.03723279 0.22595745
0.11210053 -0.037162669 0.22553192
0.11229523 -0.03707502 0.22499999
0.11259441 -0.037022434 0.22468086
0.1129458 -0.036987372 0.22446808
0.11335008 -0.036969844 0.2243617
0.11375392 -0.036952317 0.22425532
0.11410314 -0.036917254 0.22404255
0.11450589 -0.036899727 0.22393617
0.11485361 -0.036864668 0.22372341
0.11514561 -0.036812078 0.22340426
0.11532622 -0.036724433 0.22287235
0.11555992 -0.036654312 0.22244681
0.11584737 -0.036601722 0.22212766
0.11613351 -0.036549136 0.22180851
0.11636244 -0.036479015 0.22138298
0.11664576 -0.036426429 0.22106382
0.11687144 -0.036356311 0.2206383
0.11715194 -0.036303721 0.22031915
0.11743113 -0.036251131 0.22
0.11776604 -0.036216073 0.21978724
0.11810006 -0.036181014 0.21957447
0.11849067 -0.036163487 0.21946809
0.11882317 -0.036128424 0.21925531
0.11909695 -0.036075838 0.21893618
0.11925323 -0.035988189 0.21840425
0.11940736 -0.035900541 0.21787234
0.11944228 -0.035777837 0.21712767
0.11953288 -0.035672657 0.21648936
0.11967985 -0.035585009 0.21595745
0.11994299 -0.035532419 0.21563829
0.12026421 -0.035497364 0.21542554
0.12064417 -0.035479832 0.21531914
0.12102369 -0.035462301 0.21521276
0.12134275 -0.035427243 0.215
0.12178145 -0.035427243 0.215
0.1223411 -0.035462301 0.21521276
0.12314439 -0.035567481 0.21585107
0.12401119 -0.035690185 0.21659574
0.12506442 -0.035865482 0.21765958
0.1507466 -0.040230345 0.24414894
0.15111296 -0.040195283 0.24393617
0.15128011 -0.040107634 0.24340425
0.15171044 -0.040090106 0.24329787
0.15260619 -0.040195283 0.24393617
0.15330425 -0.040247872 0.24425532
0.15393661 -0.040282931 0.24446808
0.15456985 -0.04031799 0.24468085
0.15520395 -0.040353049 0.24489361
0.15570365 -0.040353049 0.24489361
0.1561355 -0.040335521 0.24478723
0.1565669 -0.04031799 0.24468085
-0.14143164 -0.039801415 0.24457447
-0.14038087 -0.039645605 0.24361703
-0.13927294 -0.039472476 0.24255319
-0.13810846 -0.039282039 0.24138297
-0.13713074 -0.03914354 0.24053192
-0.13639821 -0.039074291 0.24010639
-0.13596849 -0.039091602 0.24021277
-0.13571835 -0.039160855 0.2406383
-0.13558602 -0.039264727 0.24127659
-0.13533196 -0.039333977 0.24170212
-0.13501683 -0.039385915 0.24202128
-0.13487777 -0.039489791 0.24265957
-0.13503069 -0.039680228 0.24382979
-0.1355897 -0.039991852 0.24574468
-0.13619938 -0.040320791 0.24776596
-0.13627645 -0.040493913 0.24882978
-0.066053867 -0.022765925 0.13989362
-0.065718397 -0.022748612 0.13978723
-0.065333575 -0.022713987 0.13957447
-0.064949624 -0.022679364 0.13936171
-0.064665265 -0.022679364 0.13936171
-0.064380899 -0.022679364 0.13936171
-0.064096533 -0.022679364 0.13936171
-0.063812174 -0.022679364 0.13936171
-0.063576303 -0.022696676 0.13946809
-0.063388273 -0.022731299 0.13968085
-0.063199386 -0.022765925 0.13989362
-0.06296178 -0.022783237 0.14
-0.062676109 -0.022783237 0.14
-0.062437855 -0.02280055 0.14010638
-0.062293552 -0.022852488 0.14042553
-0.062147945 -0.022904426 0.14074469
-0.062047791 -0.022973675 0.14117022
-0.061899357 -0.023025611 0.14148936
-0.061749626 -0.023077549 0.14180851
-0.061552487 -0.023112176 0.14202128
-0.061400361 -0.023164112 0.14234042
-0.061155591 -0.023181424 0.1424468
-0.06409847 -0.050916035 0.31287235
-0.063352175 -0.050829474 0.31234044
-0.062672131 -0.050794844 0.31212765
-0.062056392 -0.050812159 0.31223404
-0.061461139 -0.050846782 0.3124468
-0.060844313 -0.050864097 0.3125532
-0.060206562 -0.050864097 0.3125532
-0.059568807 -0.050864097 0.3125532
-0.058910992 -0.050846782 0.3124468
0.029672662 -0.049721472 0.30553192
0.030296091 -0.049721472 0.30553192
0.030930283 -0.049738783 0.30563828
0.03156491 -0.049756095 0.30574468
0.078164794 -0.045306787 0.27840427
0.07801082 -0.044891287 0.27585107
0.078513086 -0.044856664 0.27563831
0.079014465 -0.044822037 0.27542552
0.079484254 -0.044770099 0.27510637
0.079921789 -0.04470085 0.27468085
0.080326416 -0.044614289 0.27414894
0.080728874 -0.044527724 0.27361703
0.081097543 -0.044423848 0.27297872
0.081495441 -0.044337288 0.27244681
0.081891172 -0.044250727 0.2719149
0.082316972 -0.044181474 0.27148935
0.082741052 -0.044112224 0.27106383
0.083196074 -0.044060286 0.27074468
0.083682708 -0.044025663 0.27053192
0.084135346 -0.043973725 0.27021277
0.084520005 -0.043887164 0.26968086
0.084835365 -0.043765973 0.26893616
0.085147694 -0.043644786 0.26819149
0.085490972 -0.04354091 0.26755318
0.085831657 -0.043437041 0.2669149
0.086238578 -0.043367788 0.26648936
0.08664377 -0.043298539 0.26606384
0.087012358 -0.043211978 0.26553193
0.08737877 -0.04312541 0.26499999
0.087707736 -0.043021541 0.26436171
0.087998562 -0.04290035 0.26361701
0.088322096 -0.042796478 0.26297873
0.088678971 -0.042709917 0.26244682
0.089142151 -0.042675287 0.26223403
0.089640856 -0.042657979 0.26212767
0.090175718 -0.042657979 0.26212767
0.090636946 -0.042623349 0.26191488
0.090986215 -0.042536788 0.26138297
0.091296077 -0.042432915 0.26074469
0.091603324 -0.042329039 0.26010638
0.091870286 -0.042207852 0.25936171
0.0921342 -0.042086661 0.25861701
0.092356965 -0.041948162 0.25776595
0.09257625 -0.041809663 0.25691488
0.092792071 -0.041671161 0.25606382
0.093043193 -0.041549977 0.25531915
0.093330249 -0.041446101 0.25468084
0.093693107 -0.041376851 0.25425532
0.09405423 -0.041307598 0.25382978
0.094413616 -0.041238353 0.25340426
0.09473142 -0.041151792 0.25287235
0.09512718 -0.041099854 0.25255319
0.095521644 -0.041047916 0.25223404
0.095955312 -0.041013289 0.25202128
0.096347384 -0.040961351 0.25170213
0.096656285 -0.04087479 0.25117022
0.096963011 -0.04078823 0.25063831
0.097184822 -0.040667038 0.24989362
0.097403586 -0.040545851 0.24914894
0.097619317 -0.040424664 0.24840425
0.097916059 -0.040338103 0.24787234
0.098168388 -0.040234227 0.24723405
0.09846057 -0.040147666 0.24670213
0.098750576 -0.040061101 0.24617021
0.099081308 -0.039991852 0.24574468
0.099453419 -0.039939918 0.24542554
0.099780895 -0.039870664 0.245
0.10015018 -0.039818726 0.24468085
0.1004744 -0.039749477 0.24425532
0.10075291 -0.039662916 0.24372341
0.10102925 -0.039576355 0.2431915
0.10130341 -0.039489791 0.24265957
0.1015754 -0.039403226 0.24212766
0.10193491 -0.039351288 0.2418085
0.10224807 -0.039282039 0.24138297
0.10255948 -0.039212793 0.24095745
0.10282366 -0.039126229 0.24042553
0.10308567 -0.039039664 0.23989362
0.10334551 -0.038953103 0.2393617
0.10360318 -0.038866542 0.23882979
0.10385867 -0.038779978 0.23829788
0.10406541 -0.038676102 0.23765957
0.10426956 -0.038572229 0.23702128
0.1045181 -0.038485665 0.23648936
0.10481171 -0.038416415 0.23606382
0.1051985 -0.038381793 0.23585106
0.10558441 -0.038347166 0.23563829
0.10596944 -0.038312539 0.23542553
0.10625742 -0.03824329 0.235
0.10649534 -0.038156729 0.23446809
0.10668254 -0.038052853 0.23382978
0.10686714 -0.037948977 0.23319149
0.10704914 -0.037845105 0.2325532
0.10732691 -0.037775856 0.23212767
0.10765234 -0.037723918 0.23180851
0.10807572 -0.037706606 0.23170213
0.10849866 -0.037689291 0.23159574
0.10887111 -0.037654668 0.23138298
0.10924269 -0.037620042 0.23117021
0.10951243 -0.037550792 0.23074467
0.10983114 -0.037498854 0.23042554
0.10999577 -0.037394978 0.22978723
0.11010665 -0.037273794 0.22904256
0.11026586 -0.037169915 0.22840425
0.11047404 -0.037083354 0.22787234
0.11068004 -0.036996793 0.22734043
0.11098789 -0.036944855 0.22702128
0.11129444 -0.036892917 0.22670212
0.11165214 -0.03685829 0.22648937
0.11190364 -0.036789041 0.22606383
0.1121534 -0.036719792 0.2256383
0.11240143 -0.036650542 0.22521277
0.11270103 -0.036598604 0.22489361
0.11310639 -0.036581293 0.22478724
0.11345757 -0.036546666 0.22457446
0.11380788 -0.036512043 0.2243617
0.11421151 -0.036494732 0.22425532
0.11461469 -0.036477417 0.22414893
0.11496283 -0.03644279 0.22393617
0.11514561 -0.036356229 0.22340426
0.11532622 -0.036269668 0.22287235
0.11550465 -0.036183104 0.22234042
0.11579189 -0.03613117 0.22202128
0.11607781 -0.036079232 0.22170213
0.11636244 -0.03602729 0.22138298
0.11664576 -0.035975352 0.22106382
0.11687144 -0.035906106 0.2206383
0.11709537 -0.035836857 0.22021277
0.11737435 -0.035784919 0.21989362
0.11770903 -0.035750292 0.21968085
0.11804285 -0.035715669 0.21946809
0.11843323 -0.035698354 0.21936171
0.11876552 -0.035663728 0.21914893
0.11903907 -0.03561179 0.21882978
0.11919515 -0.035525229 0.21829787
0.11929076 -0.035421357 0.21765958
0.11932524 -0.035300169 0.21691489
0.11947415 -0.035213605 0.21638298
0.1196209 -0.035127044 0.21585107
0.11988381 -0.035075106 0.21553192
0.12020481 -0.035040479 0.21531914
0.12052496 -0.035005856 0.21510638
0.12090405 -0.034988545 0.215
0.12122267 -0.034953918 0.21478723
0.12166093 -0.034953918 0.21478723
0.12222015 -0.034988545 0.215
0.12308369 -0.035109729 0.21574467
0.1240721 -0.035265543 0.21670213
0.12524779 -0.035473295 0.21797873
0.15150838 -0.039801415 0.24457447
0.15141235 -0.039645605 0.24361703
0.15144509 -0.039524417 0.24287234
0.15233998 -0.03962829 0.24351063
0.15310393 -0.039697539 0.24393617
0.15373565 -0.039732166 0.24414894
0.15443544 -0.0397841 0.24446808
0.15513654 -0.039836038 0.24478723
0.15563601 -0.039836038 0.24478723
0.1561355 -0.039836038 0.24478723
0.15663497 -0.039836038 0.24478723
-0.14211589 -0.039353654 0.24489361
-0.14118557 -0.039233986 0.24414894
-0.14007436 -0.039063033 0.2430851
-0.13884534 -0.038857888 0.2418085
-0.13780414 -0.03870403 0.24085106
-0.13694878 -0.038601458 0.24021277
-0.13633777 -0.038567264 0.23999999
-0.13596849 -0.038601458 0.24021277
-0.13571835 -0.03866984 0.2406383
-0.13552624 -0.038755316 0.24117021
-0.1352724 -0.038823698 0.24159575
-0.13501683 -0.038892079 0.24202128
-0.13493691 -0.039011747 0.24276596
-0.13526635 -0.039251082 0.24425532
-0.1358832 -0.039575897 0.2462766
-0.13655026 -0.039917804 0.24840425
-0.1366843 -0.040105853 0.24957447
-0.066104099 -0.022497572 0.14
-0.065718397 -0.022463379 0.13978723
-0.065283783 -0.022412095 0.13946809
-0.064900041 -0.022377903 0.13925532
-0.06456653 -0.022360809 0.13914894
-0.064331748 -0.022377903 0.13925532
-0.064047605 -0.022377903 0.13925532
-0.063812174 -0.022395 0.13936171
-0.063576303 -0.022412095 0.13946809
-0.063340001 -0.022429191 0.13957447
-0.063151322 -0.022463379 0.13978723
-0.062866092 -0.022463379 0.13978723
-0.062628485 -0.022480477 0.13989362
-0.062390447 -0.022497572 0.14
-0.06224636 -0.022548858 0.14031915
-0.062194917 -0.022634335 0.14085107
-0.062141303 -0.022719812 0.14138298
-0.06199244 -0.0227711 0.14170213
-0.061795946 -0.022805288 0.14191489
-0.061644696 -0.022856576 0.14223404
-0.061492145 -0.022907862 0.1425532
-0.064011291 -0.050209247 0.3124468
-0.063287444 -0.050140865 0.31202129
-0.062650777 -0.050140865 0.31202129
-0.062077537 -0.050192155 0.31234044
-0.061502993 -0.050243434 0.31265956
-0.060885731 -0.050260533 0.31276596
-0.060227048 -0.050243434 0.31265956
-0.059589077 -0.050243434 0.31265956
-0.058951106 -0.050243434 0.31265956
0.02966233 -0.049080949 0.30542552
0.030296091 -0.049098045 0.30553192
0.030930283 -0.049115136 0.30563828
0.031553928 -0.049115136 0.30563828
0.078792021 -0.045097716 0.28063831
0.077980734 -0.044311326 0.27574468
0.078452475 -0.04426004 0.27542552
0.078922912 -0.044208754 0.27510637
0.079392053 -0.044157472 0.27478725
0.079828933 -0.044089086 0.2743617
0.080264077 -0.044020705 0.27393618
0.080666088 -0.043935224 0.27340424
0.081065938 -0.043849748 0.27287233
0.08146362 -0.043764271 0.27234042
0.081891172 -0.043695893 0.2719149
0.082316972 -0.043627508 0.27148935
0.082708575 -0.043542031 0.27095744
0.083130702 -0.043473653 0.27053192
0.083583988 -0.043422367 0.27021277
0.084035978 -0.043371078 0.26989362
0.084419981 -0.043285601 0.2693617
0.084768251 -0.043183029 0.2687234
0.085113913 -0.043080453 0.26808509
0.085490972 -0.042994976 0.26755318
0.085865863 -0.042909503 0.26702127
0.086273007 -0.042841122 0.26659575
0.086678408 -0.042772736 0.2661702
0.087047212 -0.04268726 0.26563829
0.08737877 -0.042584687 0.26499999
0.087672435 -0.04246502 0.26425532
0.087998562 -0.042362448 0.26361701
0.088357821 -0.042276971 0.2630851
0.088750862 -0.04220859 0.26265958
0.089178316 -0.042157304 0.26234043
0.089640856 -0.042123113 0.26212767
0.090065926 -0.042071827 0.26180851
0.090526506 -0.04203764 0.26159576
0.090912156 -0.041969255 0.26117021
0.091258824 -0.041883778 0.2606383
0.091565847 -0.041781202 0.25999999
0.091832601 -0.041661538 0.25925532
0.092096306 -0.041541871 0.25851065
0.092318855 -0.041405108 0.25765958
0.092537925 -0.041268345 0.25680852
0.09275353 -0.041131578 0.25595745
0.09300442 -0.041011911 0.25521275
0.093330249 -0.040926434 0.25468084
0.093693107 -0.040858053 0.25425532
0.094093651 -0.040806767 0.25393617
0.094453245 -0.040738381 0.25351062
0.094771266 -0.040652905 0.25297871
0.09512718 -0.040584527 0.25255319
0.095481351 -0.040516142 0.25212765
0.095833801 -0.040447764 0.25170213
0.096184492 -0.040379379 0.25127658
0.09653347 -0.040310998 0.25085106
0.09683954 -0.040225521 0.25031915
0.097143449 -0.040140044 0.24978724
0.097403586 -0.040037472 0.24914894
0.097702935 -0.039951995 0.24861702
0.09795808 -0.039849423 0.24797872
0.098168388 -0.039729755 0.24723405
0.098418109 -0.03962718 0.24659574
0.098707907 -0.039541706 0.24606383
0.099038422 -0.039473321 0.2456383
0.099367201 -0.03940494 0.24521276
0.099694237 -0.039336558 0.24478723
0.10001954 -0.039268177 0.2443617
0.10034312 -0.039199796 0.24393617
0.10066495 -0.039131414 0.24351063
0.10098504 -0.039063033 0.2430851
0.10130341 -0.038994651 0.24265957
0.10162003 -0.03892627 0.24223404
0.10193491 -0.038857888 0.2418085
0.102203 -0.038772412 0.24127659
0.1025142 -0.03870403 0.24085106
0.10277816 -0.038618553 0.24031915
0.10299424 -0.038515981 0.23968086
0.10329957 -0.0384476 0.23925532
0.10355702 -0.038362119 0.2387234
0.10376594 -0.038259547 0.23808511
0.10397225 -0.038156979 0.23744681
0.10422275 -0.038071498 0.23691489
0.10447109 -0.037986021 0.23638298
0.10476448 -0.03791764 0.23595744
0.10515104 -0.037883449 0.23574468
0.10553674 -0.037849259 0.23553191
0.10592157 -0.037815068 0.23531915
0.10620932 -0.037746686 0.23489362
0.10639869 -0.037644114 0.23425531
0.10658547 -0.037541542 0.23361702
0.10681839 -0.037456065 0.23308511
0.10704914 -0.037370589 0.2325532
0.10727771 -0.037285108 0.23202127
0.10760294 -0.037233826 0.23170213
0.10802609 -0.037216727 0.23159574
0.10844882 -0.037199631 0.23148936
0.10887111 -0.037182536 0.23138298
0.10924269 -0.037148345 0.23117021
0.10961341 -0.037114155 0.23095745
0.10993255 -0.037062868 0.2306383
0.11011178 -0.03665258 0.2280851
0.11037088 -0.036584195 0.22765957
0.11068004 -0.036532912 0.22734043
0.11098789 -0.036481626 0.22702128
0.11129444 -0.036430337 0.22670212
0.11159969 -0.036379054 0.22638299
0.1119563 -0.03634486 0.22617021
0.11220628 -0.036276478 0.22574468
0.11250761 -0.036225192 0.22542553
0.11286097 -0.036191002 0.22521277
0.11321345 -0.036156811 0.22499999
0.11345757 -0.036088429 0.22457446
0.11375392 -0.036037143 0.22425532
0.11404897 -0.035985857 0.22393617
0.11445151 -0.035968762 0.22382979
0.11485361 -0.035951667 0.22372341
0.11509078 -0.035883285 0.22329788
0.11527117 -0.035797808 0.22276595
0.11544939 -0.035712332 0.22223404
0.1157364 -0.035661045 0.22191489
0.11607781 -0.035626855 0.22170213
0.11641835 -0.03559266 0.22148935
0.11664576 -0.035524279 0.22106382
0.11687144 -0.035455901 0.2206383
0.11703879 -0.035370421 0.22010638
0.11726078 -0.035302039 0.21968085
0.11759502 -0.035267852 0.21946809
0.11798563 -0.035250757 0.21936171
0.11837579 -0.035233658 0.21925531
0.11870787 -0.035199467 0.21904255
0.11892334 -0.035131086 0.21861702
0.11902089 -0.035028517 0.21797873
0.11905754 -0.034908846 0.21723405
0.11914966 -0.034806274 0.21659574
0.11929793 -0.034720797 0.21606383
0.11950298 -0.034652416 0.21563829
0.11976546 -0.034601126 0.21531914
0.12008604 -0.034566939 0.21510638
0.12040575 -0.034532748 0.21489362
0.12072457 -0.034498557 0.21468085
0.12116262 -0.034498557 0.21468085
0.12160067 -0.034498557 0.21468085
0.12222015 -0.034549844 0.215
0.123023 -0.034652416 0.21563829
0.1240721 -0.034823369 0.21670213
0.12537004 -0.035062704 0.21819149
0.126306 -0.035199467 0.21904255
0.15111296 -0.039199796 0.24393617
0.15101564 -0.039045937 0.24297872
0.15117975 -0.038960461 0.24244681
0.15200722 -0.039045937 0.24297872
0.15277009 -0.039114319 0.24340425
0.1535347 -0.0391827 0.24382979
0.15423384 -0.039233986 0.24414894
0.1550017 -0.039302371 0.24457447
0.15563601 -0.039336558 0.24478723
0.1561355 -0.039336558 0.24478723
0.1565669 -0.039319463 0.24468085
-0.14149854 -0.038685173 0.24382979
-0.14050886 -0.038550146 0.24297872
-0.13933875 -0.038364485 0.2418085
-0.1382345 -0.038195703 0.24074468
-0.13737807 -0.038094435 0.24010639
-0.13676684 -0.038060676 0.23989362
-0.13627733 -0.038060676 0.23989362
-0.13602871 -0.03812819 0.24031915
-0.13577834 -0.038195703 0.24074468
-0.13546646 -0.038246337 0.24106383
-0.13521284 -0.038313851 0.24148937
-0.13495748 -0.038381364 0.2419149
-0.13493691 -0.038516391 0.24276596
-0.13526635 -0.038752686 0.24425532
-0.1358832 -0.039073378 0.2462766
-0.13649179 -0.039394066 0.24829787
-0.13650951 -0.039545968 0.24925531
-0.066154324 -0.022228785 0.14010638
-0.065768421 -0.022195028 0.13989362
-0.065283783 -0.022127515 0.13946809
-0.064900041 -0.022093758 0.13925532
-0.06456653 -0.022076881 0.13914894
-0.064331748 -0.022093758 0.13925532
-0.064096533 -0.022110637 0.13936171
-0.063860886 -0.022127515 0.13946809
-0.063576303 -0.022127515 0.13946809
-0.063291721 -0.022127515 0.13946809
-0.063055202 -0.022144394 0.13957447
-0.062770404 -0.022144394 0.13957447
-0.062485609 -0.022144394 0.13957447
-0.062295627 -0.022178149 0.13978723
-0.062199164 -0.022245662 0.14021276
-0.062147945 -0.022330055 0.14074469
-0.062094547 -0.022414448 0.1412766
-0.0619459 -0.022465082 0.14159575
-0.061749626 -0.022498839 0.14180851
-0.061552487 -0.022532595 0.14202128
-0.061354473 -0.022566352 0.14223404
-0.063880518 -0.049470436 0.3118085
-0.063222714 -0.04945356 0.31170213
-0.062693492 -0.049537953 0.31223404
-0.062183253 -0.049639225 0.31287235
-0.061607629 -0.049689859 0.3131915
-0.060968574 -0.049689859 0.3131915
-0.060268037 -0.049639225 0.31287235
-0.059609357 -0.049622346 0.31276596
-0.058971167 -0.049622346 0.31276596
0.029610671 -0.048373345 0.30489361
0.030232796 -0.048373345 0.30489361
0.030854922 -0.048373345 0.30489361
0.031477049 -0.048373345 0.30489361
0.078040898 -0.043782435 0.27595744
0.078452475 -0.043698043 0.27542552
0.078892395 -0.043630533 0.27500001
0.079330571 -0.043563016 0.27457446
0.079767026 -0.043495506 0.27414894
0.080170564 -0.043411113 0.27361703
0.080603316 -0.043343596 0.27319148
0.081002735 -0.043259207 0.27265957
0.081431799 -0.043191694 0.27223405
0.081827097 -0.043107305 0.27170214
0.082252465 -0.043039788 0.27127659
0.082643628 -0.042955399 0.27074468
0.08303263 -0.042871006 0.27021277
0.083485268 -0.042820372 0.26989362
0.083903484 -0.042752858 0.2694681
0.084319949 -0.042685341 0.26904255
0.084701136 -0.042600952 0.26851064
0.085080147 -0.042516559 0.26797873
0.08545699 -0.04243217 0.26744682
0.085831657 -0.042347778 0.2669149
0.086238578 -0.04228026 0.26648936
0.08664377 -0.042212751 0.26606384
0.087012358 -0.042128358 0.26553193
0.087308615 -0.042010207 0.26478723
0.087637149 -0.041908942 0.26414895
0.08796306 -0.04180767 0.26351064
0.088357821 -0.041740153 0.2630851
0.088786796 -0.041689519 0.26276594
0.089178316 -0.041622009 0.26234043
0.089604467 -0.041571371 0.26202127
0.089992732 -0.041503862 0.26159576
0.090379246 -0.041436344 0.26117021
0.090764038 -0.041368835 0.26074469
0.091147073 -0.041301318 0.26031914
0.091490924 -0.041216925 0.25978723
0.091757238 -0.041098781 0.25904256
0.091982603 -0.040963754 0.2581915
0.092242613 -0.040845603 0.2574468
0.092461251 -0.040710576 0.25659573
0.092714973 -0.040592428 0.25585106
0.09300442 -0.040491156 0.25521275
0.093330249 -0.040406764 0.25468084
0.093732305 -0.040356129 0.25436169
0.094133072 -0.040305499 0.25404257
0.09449289 -0.040237982 0.25361702
0.094811119 -0.040153589 0.25308511
0.09512718 -0.0400692 0.25255319
0.09540078 -0.039967928 0.25191489
0.095752791 -0.039900418 0.25148937
0.09606234 -0.039816026 0.25095746
0.096410647 -0.039748508 0.25053191
0.096757233 -0.039680999 0.25010639
0.097102068 -0.039613482 0.24968085
0.097445175 -0.039545968 0.24925531
0.097744741 -0.039461579 0.2487234
0.098000109 -0.039360311 0.24808511
0.098210625 -0.03924216 0.24734043
0.09846057 -0.039140891 0.24670213
0.098707907 -0.039039619 0.24606383
0.098995529 -0.03895523 0.24553192
0.099280983 -0.038870838 0.245
0.099564262 -0.038786445 0.24446808
0.099845372 -0.038702052 0.24393617
0.10016807 -0.038634539 0.24351063
0.10048904 -0.038567025 0.2430851
0.10085247 -0.038516391 0.24276596
0.10121458 -0.038465757 0.24244681
0.1015754 -0.038415119 0.24212766
0.10189006 -0.038347606 0.24170212
0.10215794 -0.038263217 0.24117021
0.10242364 -0.038178824 0.2406383
0.10268717 -0.038094435 0.24010639
0.10294852 -0.038010038 0.23957446
0.10320771 -0.037925649 0.23904255
0.10351087 -0.037858136 0.23861702
0.10376594 -0.037773743 0.23808511
0.10401883 -0.037689354 0.23755319
0.10422275 -0.037588082 0.23691489
0.1045181 -0.037520569 0.23648936
0.10481171 -0.037453055 0.23606382
0.10515104 -0.037402421 0.23574468
0.10553674 -0.037368663 0.23553191
0.10587368 -0.037318029 0.23521277
0.10611311 -0.037233636 0.23468085
0.10630205 -0.037132367 0.23404256
0.10653693 -0.037047975 0.23351064
0.10676963 -0.036963582 0.23297872
0.10704914 -0.036896072 0.2325532
0.10732691 -0.036828559 0.23212767
0.10760294 -0.036761045 0.23170213
0.10797647 -0.036727287 0.23148936
0.10839898 -0.036710408 0.23138298
0.10887111 -0.036710408 0.23138298
0.10929297 -0.036693532 0.2312766
0.1096639 -0.036659773 0.23106383
0.11026774 -0.036085907 0.22744681
0.11057645 -0.036035273 0.22712766
0.11088387 -0.035984639 0.2268085
0.11118999 -0.035934005 0.22648937
0.1114948 -0.035883367 0.22617021
0.11185098 -0.035849612 0.22595745
0.11220628 -0.035815854 0.22574468
0.11256071 -0.035782099 0.22553192
0.11291428 -0.03574834 0.22531915
0.11315992 -0.035680827 0.22489361
0.11340382 -0.035613313 0.22446808
0.11359203 -0.035528924 0.22393617
0.11388642 -0.035478286 0.22361702
0.11423391 -0.035444532 0.22340426
0.11463515 -0.035427656 0.22329788
0.11492629 -0.035377018 0.22297873
0.11510602 -0.035292629 0.22244681
0.11533886 -0.035225116 0.22202128
0.11568092 -0.035191357 0.22180851
0.11602212 -0.035157602 0.22159575
0.11641835 -0.035140719 0.22148935
0.11664576 -0.035073206 0.22106382
0.11681508 -0.034988817 0.22053191
0.11698223 -0.034904424 0.22
0.117204 -0.034836911 0.21957447
0.11753803 -0.034803156 0.21936171
0.1179284 -0.034786277 0.21925531
0.11831835 -0.034769397 0.21914893
0.11859255 -0.034718763 0.21882978
0.11874972 -0.03463437 0.21829787
0.11884663 -0.034533102 0.21765958
0.11888263 -0.034414951 0.21691489
0.11891558 -0.034296803 0.21617021
0.11906298 -0.03421241 0.21563829
0.11926716 -0.034144897 0.21521276
0.11958795 -0.034111142 0.215
0.11990786 -0.034077384 0.21478723
0.12022692 -0.034043629 0.21457447
0.12066475 -0.034043629 0.21457447
0.12110259 -0.034043629 0.21457447
0.12166093 -0.034077384 0.21478723
0.12222015 -0.034111142 0.215
0.123023 -0.03421241 0.21563829
0.12401119 -0.034364317 0.21659574
0.12512553 -0.034549978 0.21776596
0.12612197 -0.034701884 0.2187234
0.15088341 -0.038516391 0.24276596
0.15098074 -0.038415119 0.24212766
0.15180755 -0.038499512 0.24265957
0.152503 -0.038550146 0.24297872
0.15326674 -0.038617659 0.24340425
0.15409942 -0.038702052 0.24393617
0.15486684 -0.038769566 0.2443617
0.15550074 -0.038803324 0.24457447
0.15599979 -0.038803324 0.24457447
0.15643075 -0.038786445 0.24446808
-0.14143848 -0.038037699 0.24287234
-0.14057249 -0.037937727 0.24223404
-0.13946304 -0.037771117 0.24117021
-0.13841923 -0.037621167 0.24021277
-0.13756256 -0.037521195 0.23957446
-0.13695198 -0.037487876 0.2393617
-0.13652423 -0.037504535 0.23946808
-0.13621691 -0.037554521 0.23978724
-0.13596849 -0.037621167 0.24021277
-0.13571835 -0.037687812 0.2406383
-0.13540667 -0.037737794 0.24095745
-0.1350937 -0.037787776 0.24127659
-0.13483877 -0.037854422 0.24170212
-0.13481864 -0.037987713 0.24255319
-0.13508961 -0.038204309 0.24393617
-0.13553101 -0.03847089 0.2456383
-0.13596547 -0.038737468 0.24734043
-0.066003628 -0.021892918 0.13978723
-0.065718397 -0.021892918 0.13978723
-0.065333575 -0.021859596 0.13957447
-0.064949624 -0.021826275 0.13936171
-0.06461589 -0.021809611 0.13925532
-0.064380899 -0.021826275 0.13936171
-0.064194389 -0.021859596 0.13957447
-0.06390959 -0.021859596 0.13957447
-0.063624799 -0.021859596 0.13957447
-0.063291721 -0.021842936 0.13946809
-0.062959082 -0.021826275 0.13936171
-0.062626876 -0.021809611 0.13925532
-0.062390357 -0.021826275 0.13936171
-0.062200811 -0.021859596 0.13957447
-0.062151972 -0.021942902 0.14010638
-0.062100966 -0.022026207 0.14063829
-0.062047791 -0.022109516 0.14117022
-0.061899357 -0.022159498 0.14148936
-0.061656982 -0.022176161 0.14159575
-0.061414164 -0.022192823 0.14170213
-0.061170913 -0.022209482 0.14180851
-0.063265868 -0.048850864 0.31191489
-0.062821664 -0.049000818 0.31287235
-0.06239469 -0.049167432 0.31393617
-0.061816894 -0.049217414 0.31425533
-0.061113536 -0.049167432 0.31393617
-0.060370501 -0.049084123 0.31340426
-0.059670184 -0.049034141 0.31308511
0.028927857 -0.04765125 0.30425531
0.029528018 -0.047617931 0.30404255
0.030116759 -0.047567945 0.30372339
0.030704198 -0.047517963 0.30340424
0.03130132 -0.04748464 0.30319148
0.078040898 -0.04321935 0.27595744
0.078482777 -0.043152709 0.27553192
0.078892395 -0.043069404 0.27500001
0.079299845 -0.042986099 0.27446809
0.079705119 -0.04290279 0.27393618
0.080139391 -0.042836145 0.27351063
0.080571935 -0.042769503 0.27308512
0.080971129 -0.042686194 0.27255321
0.081368148 -0.042602886 0.27202126
0.081730977 -0.042502921 0.27138299
0.082091182 -0.042402953 0.27074468
0.082481265 -0.042319644 0.27021277
0.08286918 -0.042236339 0.26968086
0.083320729 -0.042186353 0.2693617
0.08373785 -0.042119708 0.26893616
0.08415325 -0.042053066 0.26851064
0.084533341 -0.041969758 0.26797873
0.084945038 -0.041903112 0.26755318
0.085321009 -0.041819807 0.26702127
0.085729025 -0.041753162 0.26659575
0.086169727 -0.041703179 0.2662766
0.086574472 -0.04163653 0.26585105
0.086942628 -0.041553225 0.26531914
0.087273546 -0.041453261 0.26468086
0.087601848 -0.041353293 0.26404256
0.08796306 -0.041269984 0.26351064
0.088357821 -0.041203339 0.2630851
0.088786796 -0.041153353 0.26276594
0.089178316 -0.041086711 0.26234043
0.089531712 -0.041003406 0.26180851
0.089846335 -0.040903434 0.26117021
0.090195179 -0.040820129 0.2606383
0.090578876 -0.040753487 0.26021278
0.090960838 -0.040686838 0.25978723
0.091303594 -0.040603533 0.25925532
0.09156882 -0.040486906 0.25851065
0.091830999 -0.040370274 0.25776595
0.092090152 -0.040253647 0.25702128
0.092346258 -0.040137019 0.25627661
0.092637874 -0.040037051 0.2556383
0.092965655 -0.039953746 0.25510639
0.093330249 -0.039887097 0.25468084
0.093732305 -0.039837111 0.25436169
0.094133072 -0.039787132 0.25404257
0.09449289 -0.039720487 0.25361702
0.094811119 -0.039637178 0.25308511
0.09512718 -0.039553873 0.25255319
0.095360503 -0.039437246 0.25180852
0.095671773 -0.039353937 0.25127658
0.09598089 -0.039270628 0.25074467
0.096287832 -0.039187323 0.25021276
0.096674919 -0.039137341 0.24989362
0.09701933 -0.039070696 0.24946809
0.097403586 -0.039020713 0.24914894
0.097702935 -0.038937405 0.24861702
0.098000109 -0.0388541 0.24808511
0.09825287 -0.038754132 0.24744681
0.09846057 -0.038637504 0.24670213
0.09866523 -0.038520873 0.24595745
0.098909743 -0.038420904 0.24531914
0.099151656 -0.03832094 0.24468085
0.099390961 -0.038220972 0.24404256
0.0996712 -0.038137663 0.24351063
0.099993028 -0.038071018 0.2430851
0.10040108 -0.038037699 0.24287234
0.10076407 -0.037987713 0.24255319
0.10112575 -0.037937727 0.24223404
0.10148615 -0.037887745 0.2419149
0.10180038 -0.037821099 0.24148937
0.10206781 -0.037737794 0.24095745
0.10233308 -0.037654486 0.24042553
0.10259617 -0.037571181 0.23989362
0.1028571 -0.037487876 0.2393617
0.10316178 -0.03742123 0.23893617
0.10346473 -0.037354585 0.23851064
0.10376594 -0.037287939 0.23808511
0.10401883 -0.037204634 0.23755319
0.10426956 -0.037121326 0.23702128
0.10456512 -0.03705468 0.23659575
0.10485895 -0.036988039 0.23617022
0.1051985 -0.036938053 0.23585106
0.10553674 -0.036888067 0.23553191
0.10582579 -0.036821421 0.23510638
0.10606501 -0.036738116 0.23457447
0.10625374 -0.036638152 0.23393618
0.10648839 -0.036554843 0.23340425
0.10681839 -0.036504861 0.23308511
0.10709811 -0.036438216 0.23265958
0.10737609 -0.03637157 0.23223405
0.10760294 -0.036288265 0.23170213
0.10787723 -0.03622162 0.2312766
0.1082993 -0.036204956 0.23117021
0.108771 -0.036204956 0.23117021
0.10919242 -0.036188293 0.23106383
0.10951243 -0.036138311 0.23074467
0.10978042 -0.036071666 0.23031914
0.11016458 -0.035588488 0.22723404
0.11052466 -0.035555165 0.22702128
0.11083186 -0.035505183 0.22670212
0.11108553 -0.035438538 0.22627659
0.11138992 -0.035388555 0.22595745
0.11174566 -0.035355229 0.22574468
0.1121534 -0.035338569 0.2256383
0.11250761 -0.035305247 0.22542553
0.11286097 -0.035271924 0.22521277
0.11310639 -0.035205279 0.22478724
0.11329634 -0.035121974 0.22425532
0.11348411 -0.035038669 0.22372341
0.11377806 -0.034988683 0.22340426
0.11417952 -0.034972023 0.22329788
0.11452592 -0.0349387 0.22308511
0.11481662 -0.034888715 0.22276595
0.11505097 -0.034822069 0.22234042
0.11528359 -0.034755424 0.22191489
0.11562544 -0.034722101 0.22170213
0.11596641 -0.034688778 0.22148935
0.11630652 -0.034655455 0.2212766
0.1165335 -0.034588814 0.22085106
0.11670239 -0.034505505 0.22031915
0.11692566 -0.03443886 0.21989362
0.11714721 -0.034372214 0.21946809
0.11742402 -0.034322232 0.21914893
0.11781397 -0.034305569 0.21904255
0.11820348 -0.034288909 0.21893618
0.11847726 -0.034238927 0.21861702
0.11863399 -0.034155618 0.21808511
0.11873046 -0.03405565 0.2174468
0.11876602 -0.033939023 0.21670213
0.11879854 -0.033822395 0.21595745
0.1189455 -0.033739086 0.21542554
0.11914925 -0.033672441 0.215
0.11941043 -0.033622459 0.21468085
0.11972971 -0.033589136 0.21446809
0.1201077 -0.033572473 0.2143617
0.1205451 -0.033572473 0.2143617
0.12110259 -0.033605799 0.21457447
0.12166093 -0.033639118 0.21478723
0.12222015 -0.033672441 0.215
0.12296231 -0.033755749 0.21553192
0.12382846 -0.033872377 0.2162766
0.1248199 -0.034022328 0.21723405
0.12581526 -0.034172282 0.21819149
0.15022221 -0.037854422 0.24170212
0.15084808 -0.037887745 0.2419149
0.1516079 -0.03795439 0.24234043
0.1523027 -0.038004372 0.24265957
0.15306579 -0.038071018 0.2430851
0.1538306 -0.038137663 0.24351063
0.15466459 -0.038220972 0.24404256
0.15529783 -0.038254295 0.24425532
0.15579621 -0.038254295 0.24425532
0.15622655 -0.038237631 0.24414894
-0.13958472 -0.037180353 0.24053192
-0.13860178 -0.037048798 0.23968086
-0.13780621 -0.036966577 0.23914893
-0.13719606 -0.036933687 0.23893617
-0.13670851 -0.036933687 0.23893617
-0.13640293 -0.036983021 0.23925532
-0.13615647 -0.037048798 0.23968086
-0.13590828 -0.037114576 0.24010639
-0.13565835 -0.037180353 0.24053192
-0.13534689 -0.037229683 0.24085106
-0.13497457 -0.037262574 0.24106383
-0.13477944 -0.037344795 0.24159575
-0.13470039 -0.037459902 0.24234043
-0.13479502 -0.037624344 0.24340425
-0.13506143 -0.03783812 0.24478723
-0.13520522 -0.038019005 0.24595745
-0.066036619 -0.021525465 0.13925532
-0.065802716 -0.021541912 0.13936171
-0.065618373 -0.021574799 0.13957447
-0.065333575 -0.021574799 0.13957447
-0.0649992 -0.021558356 0.13946809
-0.064714625 -0.021558356 0.13946809
-0.064479187 -0.021574799 0.13957447
-0.064243317 -0.021591242 0.13968085
-0.063958302 -0.021591242 0.13968085
-0.063624799 -0.021574799 0.13957447
-0.063243449 -0.021541912 0.13936171
-0.062911019 -0.021525465 0.13925532
-0.062579028 -0.021509022 0.13914894
-0.062295102 -0.021509022 0.13914894
-0.062153403 -0.021558356 0.13946809
-0.062057592 -0.021624133 0.13989362
-0.062007017 -0.021706352 0.14042553
-0.061907515 -0.021772129 0.14085107
-0.061759736 -0.021821463 0.14117022
-0.06156433 -0.02185435 0.14138298
-0.061321948 -0.021870794 0.14148936
-0.061033241 -0.021870794 0.14148936
-0.063395329 -0.048313081 0.3125532
-0.063013904 -0.04851041 0.31382978
-0.062606126 -0.048691295 0.315
-0.062026158 -0.048740629 0.31531915
-0.06129992 -0.048674848 0.3148936
-0.060472962 -0.048526853 0.31393617
0.028917745 -0.047013987 0.30414894
0.029466027 -0.046898875 0.30340424
0.029990176 -0.046750881 0.30244681
0.030542713 -0.046652213 0.30180851
0.031114612 -0.046586439 0.30138299
0.077950649 -0.042606942 0.27563831
0.078422174 -0.042557608 0.27531916
0.07886187 -0.042491831 0.27489361
0.079238363 -0.042393163 0.27425531
0.079643205 -0.042310942 0.27372339
0.080077052 -0.042245168 0.27329788
0.080540545 -0.042195834 0.27297872
0.080971129 -0.04213006 0.27255321
0.081304513 -0.042014945 0.27180851
0.081602819 -0.041883394 0.27095744
0.081897646 -0.041751839 0.27010638
0.082253963 -0.041653179 0.2694681
0.082673036 -0.041587397 0.26904255
0.083123289 -0.041538063 0.2687234
0.083572231 -0.041488733 0.26840425
0.083986543 -0.041422956 0.26797873
0.084365554 -0.041340735 0.26744682
0.084776163 -0.041274957 0.26702127
0.085151054 -0.041192736 0.26648936
0.085557982 -0.041126963 0.26606384
0.085997596 -0.041077629 0.26574469
0.086435907 -0.041028295 0.26542553
0.08680319 -0.040946074 0.26489362
0.087168314 -0.040863853 0.26436171
0.087531261 -0.040781636 0.2638298
0.087927543 -0.040715855 0.26340425
0.088322096 -0.040650081 0.26297873
0.088750862 -0.040600747 0.26265958
0.089105994 -0.040518526 0.26212767
0.089422569 -0.040419862 0.26148936
0.089699954 -0.04030475 0.26074469
0.090011105 -0.040206086 0.26010638
0.090356685 -0.040123865 0.25957447
0.090700097 -0.040041644 0.25904256
0.091041341 -0.039959423 0.25851065
0.091342725 -0.039860759 0.25787234
0.091679409 -0.039778538 0.25734043
0.091975793 -0.03967987 0.25670213
0.092269585 -0.039581202 0.25606382
0.092599317 -0.039498985 0.25553191
0.092926882 -0.039416764 0.255
0.093291268 -0.039350986 0.25457448
0.093693107 -0.039301656 0.25425532
0.094093651 -0.039252322 0.25393617
0.094453245 -0.039186541 0.25351062
0.094811119 -0.039120767 0.25308511
0.095087104 -0.039022099 0.2524468
0.095360503 -0.038923439 0.25180852
0.09559077 -0.038808327 0.25106382
0.095858723 -0.038709659 0.25042552
0.096165016 -0.038627442 0.24989362
0.096551448 -0.038578108 0.24957447
0.096936576 -0.038528774 0.24925531
0.097320408 -0.038479444 0.24893618
0.09766113 -0.038413666 0.24851064
0.09795808 -0.038331445 0.24797872
0.098210625 -0.038232781 0.24734043
0.09846057 -0.038134117 0.24670213
0.09866523 -0.038019005 0.24595745
0.098823957 -0.037887454 0.24510638
0.099022321 -0.037772343 0.2443617
0.099217653 -0.037657235 0.24361703
0.099540569 -0.037591457 0.2431915
0.09994927 -0.037558567 0.24297872
0.10031313 -0.037509233 0.24265957
0.10067569 -0.037459902 0.24234043
0.10103694 -0.037410568 0.24202128
0.10135225 -0.037344795 0.24159575
0.10166584 -0.037279017 0.24117021
0.10197768 -0.03721324 0.24074468
0.10224252 -0.037131019 0.24021277
0.10250518 -0.037048798 0.23968086
0.10276566 -0.036966577 0.23914893
0.10306992 -0.0369008 0.2387234
0.10337243 -0.036835022 0.23829788
0.10371958 -0.036785692 0.23797873
0.10401883 -0.036719915 0.23755319
0.10431635 -0.036654137 0.23712766
0.10456512 -0.036571916 0.23659575
0.10485895 -0.036506139 0.23617022
0.10515104 -0.036440361 0.23574468
0.10544141 -0.036374584 0.23531915
0.10573003 -0.03630881 0.23489362
0.10601691 -0.036243033 0.23446809
0.10630205 -0.036177255 0.23404256
0.10653693 -0.036095034 0.23351064
0.10681839 -0.036029257 0.23308511
0.10714708 -0.035979923 0.23276596
0.10747447 -0.035930593 0.2324468
0.10755353 -0.035799038 0.23159574
0.10772837 -0.035700373 0.23095745
0.10814979 -0.03568393 0.23085107
0.10862084 -0.03568393 0.23085107
0.1090416 -0.035667483 0.23074467
0.10936096 -0.035618152 0.23042554
0.1095776 -0.035535928 0.22989361
0.10979207 -0.035453707 0.2293617
0.10979981 -0.035305712 0.22840425
0.109855 -0.035174157 0.22755319
0.11016458 -0.035124823 0.22723404
0.11047287 -0.035075493 0.2269149
0.11077985 -0.035026159 0.22659574
0.11108553 -0.034976825 0.22627659
0.11138992 -0.034927495 0.22595745
0.11174566 -0.034894608 0.22574468
0.11210053 -0.034861717 0.22553192
0.11245452 -0.034828831 0.22531915
0.11275434 -0.034779496 0.22499999
0.11305287 -0.034730166 0.22468086
0.11329634 -0.034664389 0.22425532
0.11353807 -0.034598611 0.22382979
0.11388642 -0.034565721 0.22361702
0.11423391 -0.034532834 0.22340426
0.11458053 -0.034499943 0.22319148
0.11487146 -0.034450613 0.22287235
0.11505097 -0.034368392 0.22234042
0.11528359 -0.034302615 0.22191489
0.11556996 -0.034253284 0.22159575
0.11591072 -0.034220394 0.22138298
0.11619469 -0.03417106 0.22106382
0.11647736 -0.034121729 0.22074468
0.11664604 -0.034039509 0.22021277
0.1168691 -0.033973731 0.21978724
0.11709043 -0.033907954 0.21936171
0.11736702 -0.033858623 0.21904255
0.11769953 -0.033825733 0.21882978
0.11803117 -0.033792846 0.21861702
0.11836194 -0.033759955 0.21840425
0.11857612 -0.033694182 0.21797873
0.11873046 -0.033611957 0.2174468
0.11876602 -0.033496849 0.21670213
0.11885706 -0.033398185 0.21606383
0.1189455 -0.033299521 0.21542554
0.11914925 -0.033233743 0.215
0.11935126 -0.033167966 0.21457447
0.11967031 -0.033135075 0.2143617
0.1200481 -0.033118632 0.21425532
0.12048528 -0.033118632 0.21425532
0.1209825 -0.033135075 0.2143617
0.12154042 -0.033167966 0.21457447
0.12215968 -0.0332173 0.21489362
0.12284093 -0.033283073 0.21531914
0.12358483 -0.033365294 0.21585107
0.12451427 -0.033496849 0.21670213
0.12514047 -0.03354618 0.21702127
0.14989161 -0.037279017 0.24117021
0.15078172 -0.037377682 0.2418085
0.15154134 -0.037443459 0.24223404
0.15223593 -0.037492789 0.24255319
0.15286483 -0.03752568 0.24276596
0.153629 -0.037591457 0.2431915
0.15439491 -0.037657235 0.24361703
0.15509491 -0.037706565 0.24393617
0.15559265 -0.037706565 0.24393617
0.15602233 -0.037690122 0.24382979
-0.13884389 -0.036494829 0.23925532
-0.13817114 -0.036446147 0.23893617
-0.1376223 -0.036429919 0.23882979
-0.13719606 -0.036446147 0.23893617
-0.13670851 -0.036446147 0.23893617
-0.13628162 -0.036462374 0.23904255
-0.13603561 -0.036527283 0.23946808
-0.13578784 -0.036592189 0.23989362
-0.13553834 -0.036657099 0.24031915
-0.13522732 -0.036705781 0.2406383
-0.13491501 -0.036754463 0.24095745
-0.13472009 -0.0368356 0.24148937
-0.13458212 -0.03693296 0.24212766
-0.13461828 -0.037079003 0.2430851
-0.13465056 -0.037225049 0.24404256
-0.134445 -0.037306186 0.24457447
-0.065834828 -0.021176411 0.13882978
-0.06565202 -0.021208867 0.13904256
-0.065518349 -0.02125755 0.13936171
-0.065333575 -0.021290002 0.13957447
-0.06509836 -0.021306228 0.13968085
-0.064763986 -0.021290002 0.13957447
-0.064479187 -0.021290002 0.13957447
-0.064194389 -0.021290002 0.13957447
-0.06390959 -0.021290002 0.13957447
-0.063576303 -0.021273775 0.13946809
-0.063195162 -0.02124132 0.13925532
-0.062862962 -0.021225093 0.13914894
-0.062579028 -0.021225093 0.13914894
-0.062295102 -0.021225093 0.13914894
-0.062105995 -0.02125755 0.13936171
-0.062010396 -0.021322455 0.13978723
-0.061913066 -0.021387365 0.14021276
-0.061813995 -0.021452272 0.14063829
-0.061666653 -0.021500954 0.14095744
-0.061471686 -0.021533409 0.14117022
-0.061275844 -0.021565864 0.14138298
-0.063248873 -0.048048548 0.315
-0.062775277 -0.048178367 0.31585106
-0.06217264 -0.048210818 0.31606382
-0.061465595 -0.048162136 0.31574467
0.028356526 -0.046490747 0.30478725
0.028917745 -0.046393383 0.30414894
0.029404039 -0.046182431 0.30276597
0.029895235 -0.045987703 0.30148935
0.030413523 -0.04584166 0.30053192
0.030982815 -0.045776747 0.30010638
0.077740051 -0.041930918 0.27489361
0.078270666 -0.041914694 0.27478725
0.0787398 -0.041866012 0.27446809
0.079146162 -0.041784875 0.27393618
0.079550348 -0.041703738 0.27340424
0.080045879 -0.041671284 0.27319148
0.080540545 -0.041638829 0.27297872
0.080971129 -0.041573923 0.27255321
0.081272691 -0.041444108 0.27170214
0.081506699 -0.041281831 0.27063829
0.081768632 -0.041135792 0.26968086
0.082091585 -0.041022196 0.26893616
0.082509585 -0.040957291 0.26851064
0.08295875 -0.040908609 0.26819149
0.083406612 -0.040859926 0.26787233
0.083819836 -0.040795021 0.26744682
0.08419776 -0.040713884 0.2669149
0.084607288 -0.040648974 0.26648936
0.085015088 -0.040584069 0.26606384
0.085455351 -0.040535387 0.26574469
0.085894309 -0.040486705 0.26542553
0.086331971 -0.040438022 0.26510638
0.086698607 -0.040356886 0.26457447
0.087063074 -0.040275753 0.26404256
0.087460659 -0.040210839 0.26361701
0.087892033 -0.040162165 0.26329789
0.088286363 -0.040097252 0.26287234
0.088643022 -0.040016118 0.26234043
0.088997498 -0.039934982 0.26180851
0.089277051 -0.039821394 0.26106384
0.089590162 -0.03972403 0.26042554
0.089863844 -0.039610434 0.25968084
0.090134494 -0.039496846 0.25893617
0.090439349 -0.039399482 0.25829786
0.090779074 -0.039318349 0.25776595
0.091154315 -0.039253443 0.25734043
0.091527805 -0.03918853 0.25691488
0.091899566 -0.039123625 0.25648937
0.092231259 -0.039042491 0.25595745
0.092560776 -0.038961355 0.25542554
0.092926882 -0.038896445 0.255
0.093291268 -0.038831536 0.25457448
0.093653902 -0.038766626 0.25414893
0.094014816 -0.038701721 0.25372341
0.094373979 -0.038636807 0.25329787
0.09473142 -0.038571902 0.25287235
0.095047042 -0.038490769 0.25234044
0.09532021 -0.038393404 0.25170213
0.095550269 -0.038279817 0.25095746
0.095777281 -0.038166221 0.25021276
0.096083142 -0.038085088 0.24968085
0.096427985 -0.038020179 0.24925531
0.096812464 -0.0379715 0.24893618
0.09719564 -0.037922818 0.24861702
0.097535707 -0.037857909 0.24819149
0.097874038 -0.037792999 0.24776596
0.098168388 -0.037711862 0.24723405
0.098418109 -0.037614498 0.24659574
0.098622553 -0.03750091 0.24585107
0.098781072 -0.037371095 0.245
0.098936103 -0.037241276 0.24414894
0.099174321 -0.037143912 0.24351063
0.099540569 -0.037095234 0.2431915
0.09994927 -0.037062779 0.24297872
0.10031313 -0.037014097 0.24265957
0.10063148 -0.036949188 0.24223404
0.10094811 -0.036884278 0.2418085
0.10121837 -0.036803145 0.24127659
0.1015313 -0.036738236 0.24085106
0.10184249 -0.036673326 0.24042553
0.10215195 -0.036608417 0.23999999
0.10241418 -0.036527283 0.23946808
0.10267424 -0.036446147 0.23893617
0.10297806 -0.036381237 0.23851064
0.10332628 -0.036332555 0.23819149
0.10367321 -0.036283877 0.23787235
0.10397225 -0.036218967 0.23744681
0.10426956 -0.036154058 0.23702128
0.10456512 -0.036089152 0.23659575
0.10481171 -0.036008012 0.23606382
0.10510359 -0.035943106 0.23563829
0.10539374 -0.035878196 0.23521277
0.10568214 -0.035813291 0.23478724
0.10601691 -0.035764609 0.23446809
0.10635037 -0.035715926 0.23414893
0.106634 -0.035651017 0.2337234
0.10691589 -0.035586108 0.23329787
0.10719605 -0.035521198 0.23287234
0.10747447 -0.035456292 0.2324468
0.10750413 -0.035310246 0.23148936
0.1075795 -0.035180431 0.2306383
0.10795043 -0.035147976 0.23042554
0.10837055 -0.035131749 0.23031914
0.10879024 -0.035115521 0.23021276
0.10910851 -0.035066839 0.22989361
0.10937478 -0.035001934 0.22946809
0.1096393 -0.034937024 0.22904256
0.10974867 -0.034823433 0.22829787
0.10990635 -0.034726068 0.22765957
0.11021616 -0.03467739 0.22734043
0.11047287 -0.034612481 0.2269149
0.11083186 -0.034580026 0.22670212
0.11113776 -0.034531347 0.22638299
0.1114948 -0.034498889 0.22617021
0.11179831 -0.034450207 0.22585106
0.1121534 -0.034417756 0.2256383
0.11250761 -0.034385301 0.22542553
0.11280766 -0.034336619 0.22510639
0.11310639 -0.034287937 0.22478724
0.11340382 -0.034239255 0.22446808
0.11375392 -0.034206804 0.22425532
0.11404897 -0.034158122 0.22393617
0.11439711 -0.034125667 0.22372341
0.11463515 -0.034060758 0.22329788
0.11487146 -0.033995852 0.22287235
0.11510602 -0.033930942 0.22244681
0.11533886 -0.033866033 0.22202128
0.11556996 -0.033801123 0.22159575
0.11585502 -0.033752441 0.2212766
0.11613877 -0.033703759 0.22095744
0.11642123 -0.033655081 0.2206383
0.11664604 -0.033590171 0.22021277
0.1168691 -0.033525262 0.21978724
0.11709043 -0.033460356 0.21936171
0.11736702 -0.033411674 0.21904255
0.11764231 -0.033362992 0.2187234
0.11791629 -0.03331431 0.21840425
0.11824664 -0.033281855 0.21819149
0.11851824 -0.033233173 0.21787234
0.11873046 -0.033168264 0.2174468
0.11882433 -0.033070903 0.21680851
0.1189741 -0.032989766 0.2162766
0.11906298 -0.032892402 0.21563829
0.1192082 -0.032811269 0.21510638
0.11941043 -0.03274636 0.21468085
0.11967031 -0.032697678 0.2143617
0.11998849 -0.032665223 0.21414894
0.12042546 -0.032665223 0.21414894
0.12092246 -0.03268145 0.21425532
0.1214199 -0.032697678 0.2143617
0.12197825 -0.032730132 0.21457447
0.12265885 -0.032795042 0.215
0.123463 -0.032892402 0.21563829
0.12426977 -0.032989766 0.2162766
0.12507913 -0.033087131 0.21691489
0.14860868 -0.036592189 0.23989362
0.14975938 -0.036754463 0.24095745
0.1507154 -0.036868051 0.24170212
0.15154134 -0.036949188 0.24223404
0.1521024 -0.036965415 0.24234043
0.15273085 -0.03699787 0.24255319
0.15336019 -0.037030324 0.24276596
0.15412523 -0.037095234 0.2431915
0.15482436 -0.037143912 0.24351063
0.1553891 -0.037160143 0.24361703
0.15588619 -0.037160143 0.24361703
-0.13835001 -0.035878554 0.23840426
-0.13798659 -0.035910577 0.23861702
-0.1376836 -0.035958607 0.23893617
-0.13725714 -0.035974614 0.23904255
-0.13664766 -0.035942595 0.23882979
-0.13616033 -0.035942595 0.23882979
-0.13591474 -0.036006637 0.23925532
-0.13572763 -0.036086686 0.23978724
-0.13553834 -0.036166735 0.24031915
-0.13528711 -0.036230776 0.24074468
-0.13497457 -0.036278807 0.24106383
-0.13472009 -0.036342848 0.24148937
-0.13458212 -0.036438908 0.24212766
-0.13444155 -0.036534969 0.24276596
-0.13435706 -0.036647037 0.24351063
