# .PCD v0.7 - Point Cloud Data file format
VERSION 0.7
FIELDS x y z
SIZE 4 4 4
TYPE F F F
COUNT 1 1 1
WIDTH 1355
HEIGHT 1
VIEWPOINT 0 0 0 1 0 0 0
POINTS 1355
DATA ascii
-0.058413111 -0.13055146 0.30648935
-0.057787731 -0.13055146 0.30648935
-0.057202034 -0.1306421 0.30670214
-0.056635093 -0.13077804 0.30702129
-0.05604744 -0.13086867 0.30723405
-0.055458918 -0.1309593 0.30744681
-0.054907475 -0.13114056 0.30787235
-0.054429315 -0.13150308 0.30872339
-0.054021843 -0.13204685 0.31
-0.053572513 -0.13249999 0.31106383
-0.053064529 -0.13281719 0.3118085
-0.052464072 -0.13290784 0.31202129
-0.05177439 -0.13277189 0.31170213
-0.0284964 -0.12819511 0.30095744
-0.027892163 -0.12824042 0.30106384
-0.027297128 -0.12833105 0.30127659
-0.026682384 -0.12833105 0.30127659
-0.02604923 -0.12824042 0.30106384
-0.025389982 -0.12801385 0.30053192
-0.024724133 -0.12774196 0.29989362
-0.024069443 -0.12751539 0.29936171
0.0022679709 -0.071778387 0.16851065
0.0026167575 -0.07191433 0.16882978
0.002966847 -0.072050273 0.16914894
0.003318239 -0.072186217 0.16946809
0.0036640328 -0.072186217 0.16946809
0.0040073092 -0.072140902 0.1693617
0.004347418 -0.072050273 0.16914894
0.0046925605 -0.072050273 0.16914894
0.0050345352 -0.072004959 0.16904256
0.0053726896 -0.07191433 0.16882978
0.0057063741 -0.071778387 0.16851065
0.0060463944 -0.071733072 0.16840425
0.0063900179 -0.071733072 0.16840425
0.052649725 -0.11999316 0.28170213
0.053284831 -0.12012911 0.28202128
0.053961869 -0.12035568 0.2825532
0.054641079 -0.12058225 0.28308511
0.055301707 -0.1207635 0.28351063
0.055922143 -0.12085414 0.28372341
0.056479882 -0.12080882 0.28361702
0.056972988 -0.12062757 0.2831915
0.057421111 -0.12035568 0.2825532
0.057844799 -0.12003848 0.28180853
0.058331601 -0.11985721 0.28138298
0.058905754 -0.11985721 0.28138298
0.059569862 -0.12003848 0.28180853
0.060281105 -0.12031036 0.2824468
0.06099496 -0.12058225 0.28308511
0.061642006 -0.1207182 0.28340426
0.062266994 -0.12080882 0.28361702
0.062845707 -0.12080882 0.28361702
0.063376836 -0.1207182 0.28340426
0.063859083 -0.12053693 0.28297871
0.064315371 -0.12031036 0.2824468
0.18495098 -0.12592937 0.29563829
0.1851536 -0.12565748 0.29499999
0.18555459 -0.12552156 0.29468086
0.18595426 -0.12538561 0.29436171
0.18635263 -0.12524965 0.29404256
0.18681735 -0.12515904 0.2938298
0.18721332 -0.12502308 0.29351065
0.187608 -0.12488714 0.29319149
0.18793307 -0.12470587 0.29276595
0.18825644 -0.12452462 0.29234043
0.18878423 -0.1244793 0.29223403
-0.16420311 -0.1166674 0.27521276
-0.16383131 -0.1168027 0.27553192
-0.16333213 -0.1168478 0.27563831
-0.16270688 -0.1168027 0.27553192
-0.16195685 -0.1166674 0.27521276
-0.16108336 -0.11644192 0.27468085
-0.16039854 -0.11635172 0.27446809
-0.15990044 -0.11639681 0.27457446
-0.15977235 -0.1167125 0.27531916
-0.15970272 -0.11707329 0.27617022
-0.15962961 -0.11743407 0.27702129
-0.064711824 -0.13001628 0.30670214
-0.06404154 -0.12992609 0.30648935
-0.063460186 -0.13001628 0.30670214
-0.062943347 -0.13024178 0.30723405
-0.062445916 -0.13051236 0.30787235
-0.061881788 -0.13064764 0.30819148
-0.061252933 -0.13064764 0.30819148
-0.060582228 -0.13055745 0.30797872
-0.059912391 -0.13046727 0.30776596
-0.059222925 -0.13033196 0.30744681
-0.058514491 -0.13015158 0.30702129
-0.057847906 -0.13006137 0.3068085
-0.057221871 -0.13006137 0.3068085
-0.056635093 -0.13015158 0.30702129
-0.05604744 -0.13024178 0.30723405
-0.055458918 -0.13033196 0.30744681
-0.054907475 -0.13051236 0.30787235
-0.054410562 -0.13082804 0.30861703
-0.053966224 -0.13127902 0.30968085
-0.053499229 -0.1316849 0.31063831
-0.052974004 -0.13195547 0.31127658
-0.052356746 -0.13200058 0.31138298
-0.051650699 -0.13182019 0.31095746
-0.050911479 -0.1315496 0.31031916
-0.0284964 -0.12758102 0.30095744
-0.027902016 -0.12767121 0.3011702
-0.027326046 -0.12785161 0.30159575
-0.026738916 -0.12798689 0.3019149
-0.02610446 -0.12789671 0.30170214
-0.025443906 -0.12767121 0.3011702
-0.024767986 -0.12735553 0.30042553
-0.024120765 -0.12717514 0.30000001
0.0022665388 -0.071389444 0.16840425
0.0026167575 -0.071569838 0.16882978
0.0029687129 -0.071750224 0.16925532
0.0033161556 -0.071795322 0.1693617
0.0036594325 -0.071750224 0.16925532
0.0040022754 -0.071705133 0.16914894
0.0043446841 -0.071660034 0.16904256
0.0046896096 -0.071660034 0.16904256
0.0050345352 -0.071660034 0.16904256
0.0053726896 -0.071569838 0.16882978
0.0057099764 -0.071479641 0.16861703
0.0060502146 -0.07143455 0.16851065
0.0063900179 -0.071389444 0.16840425
0.055467717 -0.12054579 0.28436169
0.056131821 -0.12072619 0.28478724
0.056691732 -0.12068108 0.28468084
0.057165604 -0.1204556 0.28414893
0.057594068 -0.12013992 0.28340426
0.058019485 -0.11982423 0.28265956
0.058508031 -0.11964384 0.28223404
0.05903938 -0.11955366 0.28202128
0.059659809 -0.11964384 0.28223404
0.060303815 -0.11977914 0.2825532
0.060949121 -0.11991443 0.28287235
0.061572589 -0.12000462 0.28308511
0.062173571 -0.12004973 0.2831915
0.062704265 -0.11995953 0.28297871
0.063234091 -0.11986933 0.28276595
0.063715041 -0.11968894 0.28234044
0.064218476 -0.11955366 0.28202128
0.064745046 -0.11946346 0.28180853
0.065344721 -0.11950855 0.28191489
0.18488653 -0.12487517 0.29457447
0.18521963 -0.12469476 0.29414892
0.18555103 -0.12451438 0.2937234
0.18588069 -0.124334 0.29329789
0.18634386 -0.12424379 0.2930851
0.18680619 -0.1241536 0.29287234
0.1873357 -0.1241085 0.29276595
0.1877965 -0.1240183 0.29255319
0.18825644 -0.12392811 0.29234043
0.18878423 -0.12388301 0.29223403
-0.16803446 -0.1141311 0.27053192
-0.16708729 -0.11386181 0.26989362
-0.16594578 -0.11345789 0.26893616
-0.16506989 -0.11323348 0.26840425
-0.16368194 -0.11534287 0.27340424
-0.16363184 -0.11570191 0.27425531
-0.16345178 -0.1159712 0.27489361
-0.16307998 -0.11610584 0.27521276
-0.16251841 -0.11610584 0.27521276
-0.16176903 -0.1159712 0.27489361
-0.16102096 -0.11583655 0.27457446
-0.16039854 -0.11579169 0.27446809
-0.15990044 -0.11583655 0.27457446
-0.15964887 -0.11606096 0.27510637
-0.15945663 -0.11633024 0.27574468
-0.064086005 -0.12939048 0.30670214
-0.063548237 -0.12956999 0.30712765
-0.063074119 -0.12988415 0.30787235
-0.062575378 -0.13015343 0.30851063
-0.062009953 -0.13028808 0.30882978
-0.061379798 -0.13028808 0.30882978
-0.06072871 -0.1302432 0.30872339
-0.060036648 -0.13010857 0.30840427
-0.059325386 -0.12992904 0.30797872
-0.05859559 -0.12970462 0.30744681
-0.057908081 -0.12956999 0.30712765
-0.057281397 -0.12956999 0.30712765
-0.056674339 -0.12961487 0.30723405
-0.05608625 -0.12970462 0.30744681
-0.055478107 -0.12974952 0.3075532
-0.054907475 -0.12988415 0.30787235
-0.054373052 -0.13010857 0.30840427
-0.053892072 -0.13046761 0.30925533
-0.053389296 -0.13078177 0.31
-0.052811068 -0.1309164 0.31031916
-0.05215998 -0.13087152 0.31021276
-0.051456325 -0.13069201 0.30978724
-0.050736945 -0.13046761 0.30925533
-0.050019737 -0.1302432 0.30872339
-0.028516544 -0.12705667 0.3011702
-0.027931584 -0.12719132 0.30148935
-0.027364599 -0.12741572 0.30202127
-0.026767181 -0.1275055 0.30223405
-0.026141277 -0.12746061 0.30212766
-0.025479857 -0.1272362 0.30159575
-0.024803068 -0.12692204 0.30085108
0.0019131978 -0.07068678 0.16755319
0.0022622435 -0.070911184 0.16808511
0.0026118113 -0.071090706 0.16851065
0.0029612491 -0.071225345 0.16882978
0.0033078236 -0.071270227 0.16893616
0.0036525321 -0.071270227 0.16893616
0.0039972407 -0.071270227 0.16893616
0.0043419492 -0.071270227 0.16893616
0.0046896096 -0.07131511 0.16904256
0.0050377036 -0.071359985 0.16914894
0.0053794608 -0.07131511 0.16904256
0.0057243868 -0.07131511 0.16904256
0.0060654925 -0.071270227 0.16893616
0.0064061643 -0.071225345 0.16882978
0.056797661 -0.1203246 0.28521276
0.057294019 -0.12014509 0.28478724
0.057745401 -0.1198758 0.28414893
0.058194175 -0.11960652 0.28351063
0.058706515 -0.11947189 0.2831915
0.059262086 -0.119427 0.28308511
0.0598622 -0.11947189 0.2831915
0.060440045 -0.11947189 0.2831915
0.061017886 -0.11947189 0.2831915
0.061572589 -0.119427 0.28308511
0.062126856 -0.11938211 0.28297871
0.062657118 -0.11929236 0.28276595
0.063162722 -0.11915771 0.2824468
0.063643023 -0.11897819 0.28202128
0.064145803 -0.11884356 0.28170213
0.064696163 -0.11879867 0.28159574
0.065344721 -0.11893331 0.28191489
0.066815473 -0.12054901 0.28574467
0.067624368 -0.12095293 0.28670213
0.18502006 -0.12436385 0.29478723
0.18535362 -0.12418433 0.29436171
0.18555103 -0.12391505 0.2937234
0.18574584 -0.12364576 0.2930851
0.18614094 -0.12351112 0.29276595
0.18667048 -0.12346625 0.29265958
0.18719956 -0.12342136 0.29255319
0.18772823 -0.12337649 0.29244682
0.18825644 -0.1233316 0.29234043
0.18878423 -0.12328672 0.29223403
-0.16893895 -0.1134451 0.27021277
-0.16865276 -0.11362375 0.27063829
-0.16810052 -0.11362375 0.27063829
-0.167219 -0.11340043 0.27010638
-0.16607708 -0.11299847 0.26914895
-0.16520076 -0.11277515 0.26861703
-0.16465266 -0.11277515 0.26861703
-0.1644295 -0.11299847 0.26914895
-0.16315341 -0.11402573 0.27159575
-0.16310874 -0.11438303 0.27244681
-0.16306061 -0.11474034 0.27329788
-0.16300899 -0.11509765 0.27414894
-0.16276479 -0.11532097 0.27468085
-0.16232994 -0.11541029 0.27489361
-0.16170645 -0.11536563 0.27478725
-0.16108336 -0.11532097 0.27468085
-0.16052288 -0.11532097 0.27468085
-0.16002436 -0.11536563 0.27478725
-0.15958713 -0.11545496 0.27500001
-0.063117705 -0.12934528 0.30808511
-0.062640108 -0.12965792 0.30882978
-0.062074035 -0.12979192 0.30914894
-0.061464373 -0.12983657 0.30925533
-0.060812421 -0.12979192 0.30914894
-0.060140196 -0.12970258 0.30893618
-0.059386864 -0.1294346 0.30829787
-0.058656417 -0.12921129 0.30776596
-0.057988316 -0.12912196 0.3075532
-0.057380602 -0.12916662 0.30765957
-0.056792084 -0.12925595 0.30787235
-0.056163881 -0.12925595 0.30787235
-0.055535678 -0.12925595 0.30787235
-0.05496439 -0.12938994 0.30819148
-0.054410562 -0.12956859 0.30861703
-0.053873532 -0.12979192 0.30914894
-0.053316008 -0.12997057 0.30957446
-0.052702438 -0.13001522 0.30968085
-0.05201688 -0.12988123 0.3093617
-0.051314961 -0.12970258 0.30893618
-0.050597318 -0.12947927 0.30840427
-0.049899083 -0.12930061 0.30797872
-0.049253646 -0.12925595 0.30787235
-0.029151654 -0.12653148 0.30138299
-0.028546764 -0.12657614 0.30148935
-0.027961152 -0.12671013 0.30180851
-0.027383879 -0.1268888 0.30223405
-0.026795443 -0.12702277 0.30255318
-0.02616889 -0.12697811 0.30244681
-0.025506821 -0.12675481 0.3019149
-0.02483815 -0.12648682 0.30127659
0.001560337 -0.069853596 0.16638298
0.0019059095 -0.070076913 0.1669149
0.0022522209 -0.07025557 0.16734043
0.0025986203 -0.070389561 0.16765958
0.0029444557 -0.070478886 0.16787234
0.0032911599 -0.070568211 0.16808511
0.0036364319 -0.070612878 0.16819149
0.0039846553 -0.070702203 0.16840425
0.0043337471 -0.070791528 0.16861703
0.0046837069 -0.070880853 0.16882978
0.0050345352 -0.070970185 0.16904256
0.0053828461 -0.071014844 0.16914894
0.0057315915 -0.07105951 0.16925532
0.006076951 -0.07105951 0.16925532
0.05783188 -0.11947466 0.28457448
0.058325198 -0.11929601 0.28414893
0.058904994 -0.11929601 0.28414893
0.059529331 -0.11938533 0.28436169
0.060132049 -0.11943 0.28446808
0.060689792 -0.11938533 0.28436169
0.061201259 -0.11925135 0.28404257
0.061711423 -0.11911736 0.28372341
0.062196925 -0.1189387 0.28329787
0.062704265 -0.11880471 0.28297871
0.063186511 -0.11862606 0.2825532
0.063643023 -0.11840274 0.28202128
0.064145803 -0.11826875 0.28170213
0.064720608 -0.11826875 0.28170213
0.065369383 -0.11840274 0.28202128
0.066094086 -0.11867072 0.28265956
0.066821404 -0.1189387 0.28329787
0.067475393 -0.11907269 0.28361702
0.068564631 -0.11996596 0.28574467
0.18548746 -0.124075 0.29553193
0.18582253 -0.12389634 0.29510638
0.18588705 -0.12353903 0.29425532
0.1859481 -0.12318172 0.29340425
0.18620859 -0.12295841 0.29287234
0.18667048 -0.12286908 0.29265958
0.18719956 -0.12282442 0.29255319
0.18772823 -0.12277976 0.29244682
0.18818793 -0.12269042 0.29223403
0.1887155 -0.12264577 0.29212767
-0.16887243 -0.11284929 0.27010638
-0.16865276 -0.11307152 0.27063829
-0.16823269 -0.11316042 0.27085108
-0.16741657 -0.11298263 0.27042553
-0.16647092 -0.11271594 0.26978722
-0.16565873 -0.11253817 0.2693617
-0.16517432 -0.11258262 0.2694681
-0.16488445 -0.1127604 0.26989362
-0.16459285 -0.11293819 0.27031916
-0.16423492 -0.11307152 0.27063829
-0.16374704 -0.11311597 0.27074468
-0.1631946 -0.11311597 0.27074468
-0.16283387 -0.11324931 0.27106383
-0.16259922 -0.11347155 0.27159575
-0.16248934 -0.11378266 0.27234042
-0.16250294 -0.11418268 0.27329788
-0.1624496 -0.11453825 0.27414894
-0.16220431 -0.11476049 0.27468085
-0.16170645 -0.11480494 0.27478725
-0.16120812 -0.11484937 0.27489361
-0.1607094 -0.11489382 0.27500001
-0.16021021 -0.11493827 0.27510637
-0.060160901 -0.12911665 0.30904254
-0.059407361 -0.12884998 0.30840427
-0.058717243 -0.12871665 0.30808511
-0.058088608 -0.12871665 0.30808511
-0.057499651 -0.12880553 0.30829787
-0.056909826 -0.12889442 0.30851063
-0.056299731 -0.12893887 0.30861703
-0.055670008 -0.12893887 0.30861703
-0.055059254 -0.12898332 0.30872339
-0.054485582 -0.12911665 0.30904254
-0.053910609 -0.12924999 0.3093617
-0.053316008 -0.12933889 0.30957446
-0.052666228 -0.12929444 0.30946809
-0.051981106 -0.1291611 0.30914894
-0.051279616 -0.12898332 0.30872339
-0.050579865 -0.12880553 0.30829787
-0.049899083 -0.1286722 0.30797872
-0.049270663 -0.1286722 0.30797872
-0.048642244 -0.1286722 0.30797872
-0.034861717 -0.13120563 0.31404254
-0.034162965 -0.1309834 0.31351063
-0.033409502 -0.13053894 0.3124468
-0.029203104 -0.12613876 0.3019149
-0.028587056 -0.12613876 0.3019149
-0.027990721 -0.12622765 0.30212766
-0.027412793 -0.12640542 0.30255318
-0.026823709 -0.12653877 0.30287233
-0.026196506 -0.12649433 0.30276597
-0.025551759 -0.12636098 0.30244681
0.0012130322 -0.069069631 0.16531914
0.0015533534 -0.069202974 0.1656383
0.0018949769 -0.06933631 0.16595745
0.002236471 -0.069425203 0.16617021
0.0025788336 -0.069514096 0.16638298
0.0029201985 -0.069558546 0.16648936
0.0032640803 -0.069647431 0.16670212
0.0036111309 -0.069780774 0.16702127
0.0039620008 -0.06995856 0.16744681
0.0043118731 -0.070091903 0.16776596
0.0046630478 -0.070225239 0.16808511
0.0050155246 -0.070358574 0.16840425
0.0053693047 -0.070491917 0.1687234
0.0057207835 -0.07058081 0.16893616
0.0060731317 -0.070669703 0.16914894
0.059729766 -0.11920512 0.28531915
0.060401898 -0.1193829 0.28574467
0.060962252 -0.11933846 0.2856383
0.061453395 -0.11916067 0.28521276
0.061919671 -0.11893844 0.28468084
0.062360421 -0.11867177 0.28404257
0.062822126 -0.11844952 0.28351063
0.063305467 -0.11827175 0.28308511
0.063763052 -0.11804952 0.2825532
0.064291149 -0.11796062 0.28234044
0.064842813 -0.11791617 0.28223404
0.065492675 -0.11804952 0.2825532
0.066168718 -0.1182273 0.28297871
0.066846497 -0.11840509 0.28340426
0.067500703 -0.11853843 0.28372341
0.068488061 -0.11924957 0.28542554
0.069894254 -0.12067185 0.28882977
0.18595485 -0.1237831 0.2962766
0.18629144 -0.1236053 0.29585105
0.18629028 -0.1232053 0.29489362
0.1862852 -0.12280528 0.29393616
0.18634386 -0.1224497 0.2930851
0.18667048 -0.12227193 0.29265958
0.18713149 -0.12218303 0.29244682
0.18759163 -0.12209413 0.29223403
0.18805091 -0.12200524 0.29202127
0.18850933 -0.12191635 0.29180852
-0.16922338 -0.11216546 0.26978722
-0.16893895 -0.11234238 0.27021277
-0.16871905 -0.11256353 0.27074468
-0.16829875 -0.11265198 0.27095744
-0.16768003 -0.11260776 0.27085108
-0.16693044 -0.11247507 0.27053192
-0.16624758 -0.11238661 0.27031916
-0.1657612 -0.11243083 0.27042553
-0.16533938 -0.11251929 0.27063829
-0.16491672 -0.11260776 0.27085108
-0.16436405 -0.11260776 0.27085108
-0.16374704 -0.11256353 0.27074468
-0.16313046 -0.11251929 0.27063829
-0.16264215 -0.11256353 0.27074468
-0.16221708 -0.11265198 0.27095744
-0.16204505 -0.11291736 0.27159575
-0.16206017 -0.11331543 0.27255321
-0.16213441 -0.11375772 0.27361703
-0.16201584 -0.11406732 0.2743617
-0.16170645 -0.11424424 0.27478725
-0.16133289 -0.11437692 0.27510637
-0.16095807 -0.11450961 0.27542552
-0.16045803 -0.11455385 0.27553192
-0.058757793 -0.12817647 0.30829787
-0.058168836 -0.12826492 0.30851063
-0.057638537 -0.12848607 0.30904254
-0.057066821 -0.12861875 0.3093617
-0.056474388 -0.1287072 0.30957446
-0.055823527 -0.12866299 0.30946809
-0.055192068 -0.12866299 0.30946809
-0.054579359 -0.1287072 0.30957446
-0.053966224 -0.12875144 0.30968085
-0.053316008 -0.1287072 0.30957446
-0.052666228 -0.12866299 0.30946809
-0.051981106 -0.12853029 0.30914894
-0.051279616 -0.12835337 0.30872339
-0.050597318 -0.12822069 0.30840427
-0.049950793 -0.12817647 0.30829787
-0.049321722 -0.12817647 0.30829787
-0.048692651 -0.12817647 0.30829787
-0.048080165 -0.12822069 0.30840427
-0.047467243 -0.12826492 0.30851063
-0.035442378 -0.13034369 0.31351063
-0.034790862 -0.13029946 0.31340426
-0.034058634 -0.12994564 0.3125532
-0.033261623 -0.12932642 0.31106383
-0.032426059 -0.12853029 0.30914894
-0.029913714 -0.12592076 0.30287233
-0.029264841 -0.12578808 0.30255318
-0.02863742 -0.12574385 0.30244681
-0.028039999 -0.1258323 0.30265957
-0.027451349 -0.125965 0.30297872
-0.026861398 -0.12609769 0.30329788
-0.026251731 -0.12614191 0.30340424
-0.025623659 -0.12609769 0.30329788
0.00053629716 -0.068466932 0.16468085
0.00087288639 -0.068511158 0.16478723
0.0012099098 -0.068555385 0.16489361
0.0015463696 -0.068555385 0.16489361
0.0018840445 -0.068599619 0.16500001
0.0022207214 -0.068599619 0.16500001
0.0025590472 -0.068643846 0.16510639
0.0028959413 -0.068643846 0.16510639
0.0032370011 -0.068732306 0.16531914
0.0035812298 -0.068864994 0.1656383
0.0039317948 -0.069086142 0.16617021
0.0042817965 -0.069263056 0.16659574
0.0046335347 -0.06943997 0.16702127
0.0049870093 -0.069616891 0.16744681
0.0053422209 -0.069793805 0.16787234
0.0056955665 -0.0699265 0.16819149
0.006042575 -0.069970727 0.16829787
0.061121181 -0.11906523 0.28638297
0.061636772 -0.11893254 0.28606382
0.06210478 -0.11871139 0.28553191
0.062523909 -0.11840179 0.28478724
0.062963568 -0.11813641 0.28414893
0.063424416 -0.11791527 0.28361702
0.0639311 -0.11778258 0.28329787
0.064460717 -0.11769412 0.28308511
0.0650139 -0.11764989 0.28297871
0.065591305 -0.11764989 0.28297871
0.066243343 -0.11778258 0.28329787
0.066871583 -0.11787103 0.28351063
0.067500703 -0.1179595 0.28372341
0.068130687 -0.11804796 0.28393617
0.068787277 -0.11818065 0.28425533
0.069419213 -0.1182691 0.28446808
0.069973476 -0.11822487 0.28436169
0.070474528 -0.11809219 0.28404257
0.071027495 -0.11804796 0.28393617
0.071633689 -0.11809219 0.28404257
0.072294399 -0.11822487 0.28436169
0.072929166 -0.11831333 0.28457448
0.096843086 -0.12286896 0.29553193
0.18615517 -0.12331124 0.29659575
0.18642542 -0.1230901 0.29606384
0.18642469 -0.12269203 0.29510638
0.1862852 -0.1222055 0.29393616
0.18634386 -0.12185167 0.2930851
0.18660261 -0.12163053 0.29255319
0.18692727 -0.12145361 0.29212767
0.18731849 -0.12132093 0.29180852
0.18763988 -0.121144 0.29138297
0.18816572 -0.12109978 0.2912766
-0.16962376 -0.11187904 0.27042553
-0.16920498 -0.11196706 0.27063829
-0.16885164 -0.1120991 0.27095744
-0.16843091 -0.11218712 0.2711702
-0.16794346 -0.11223114 0.27127659
-0.16738993 -0.11223114 0.27127659
-0.1668364 -0.11223114 0.27127659
-0.16634808 -0.11227515 0.27138299
-0.16579434 -0.11227515 0.27138299
-0.16511102 -0.11218712 0.2711702
-0.16442861 -0.1120991 0.27095744
-0.16381139 -0.11205509 0.27085108
-0.1631946 -0.11201108 0.27074468
-0.16257824 -0.11196706 0.27063829
-0.16208971 -0.11201108 0.27074468
-0.16185462 -0.11223114 0.27127659
-0.16180713 -0.11258323 0.27212766
-0.16181922 -0.11297935 0.27308512
-0.16176456 -0.11333145 0.27393618
-0.16164383 -0.11363953 0.27468085
-0.1613953 -0.11385959 0.27521276
-0.16108242 -0.11403564 0.27563831
-0.16064389 -0.11412366 0.27585107
-0.057737742 -0.12807553 0.30957446
-0.057204191 -0.1282956 0.3101064
-0.056610242 -0.12838362 0.31031916
-0.055977046 -0.12838362 0.31031916
-0.055305906 -0.1282956 0.3101064
-0.054635629 -0.12820756 0.30989361
-0.053966224 -0.12811954 0.30968085
-0.053297691 -0.12803152 0.30946809
-0.052648123 -0.1279875 0.3093617
-0.051963218 -0.12785546 0.30904254
-0.051279616 -0.12772343 0.30872339
-0.050614771 -0.1276354 0.30851063
-0.0500025 -0.12767942 0.30861703
-0.049389794 -0.12772343 0.30872339
-0.04877666 -0.12776744 0.30882978
-0.048146505 -0.12776744 0.30882978
-0.047532715 -0.12781146 0.30893618
-0.046902344 -0.12781146 0.30893618
-0.046271969 -0.12781146 0.30893618
-0.045594443 -0.12767942 0.30861703
-0.044794224 -0.1271953 0.30744681
-0.044014063 -0.12675518 0.30638298
-0.043298502 -0.1264911 0.30574468
-0.042674642 -0.1264911 0.30574468
-0.035322115 -0.12926386 0.3124468
-0.034660958 -0.12917584 0.31223404
-0.033919521 -0.12877972 0.31127658
-0.033102367 -0.12807553 0.30957446
-0.032281 -0.12732732 0.30776596
-0.031477954 -0.12662314 0.30606383
-0.030681854 -0.12591894 0.3043617
-0.02999777 -0.12565486 0.30372339
-0.029347163 -0.12552282 0.30340424
-0.028707931 -0.1254348 0.30319148
-0.028089279 -0.1254348 0.30319148
-0.027499544 -0.12556684 0.30351064
-0.026908506 -0.12569888 0.30382979
-0.026325369 -0.12587492 0.30425531
-0.025713535 -0.12591894 0.3043617
0.0002000126 -0.068042874 0.16446808
0.0005359507 -0.068086892 0.16457447
0.00087175937 -0.068086892 0.16457447
0.0012067874 -0.068042874 0.16446808
0.0015413815 -0.067998864 0.1643617
0.0018755413 -0.067954853 0.16425532
0.0022092671 -0.067910843 0.16414894
0.0025442075 -0.067910843 0.16414894
0.0028791479 -0.067910843 0.16414894
0.0032161712 -0.067954853 0.16425532
0.0035559288 -0.068042874 0.16446808
0.003901589 -0.068218924 0.16489361
0.0042517204 -0.068438992 0.16542554
0.0046010702 -0.068615034 0.16585106
0.0049521574 -0.068791084 0.16627659
0.005304981 -0.068967134 0.16670212
0.0056559388 -0.069099173 0.16702127
0.0060005593 -0.069143184 0.16712765
0.062197339 -0.11830483 0.28595746
0.062617332 -0.11799674 0.28521276
0.063057862 -0.11773267 0.28457448
0.063567154 -0.11760063 0.28425533
0.064099155 -0.11751261 0.28404257
0.064630285 -0.11742458 0.28382978
0.06516055 -0.11733656 0.28361702
0.065714598 -0.11729254 0.28351063
0.066293091 -0.11729254 0.28351063
0.066896684 -0.11733656 0.28361702
0.067500703 -0.11738057 0.28372341
0.068105154 -0.11742458 0.28382978
0.068735793 -0.11751261 0.28404257
0.06936729 -0.11760063 0.28425533
0.069947302 -0.11760063 0.28425533
0.070500918 -0.11755662 0.28414893
0.071107335 -0.11760063 0.28425533
0.071741 -0.11768866 0.28446808
0.072375543 -0.11777668 0.28468084
0.07295642 -0.11777668 0.28468084
0.073482342 -0.11768866 0.28446808
0.074007399 -0.11760063 0.28425533
0.095962912 -0.12191384 0.29468086
0.096773356 -0.1221779 0.29531914
0.097551331 -0.12239796 0.29585105
0.18595485 -0.12257401 0.2962766
0.18615746 -0.12230994 0.29563829
0.18622307 -0.12195784 0.29478723
0.18615036 -0.12151772 0.2937234
0.18627623 -0.12120964 0.29297873
0.18639904 -0.12090154 0.29223403
0.18665498 -0.12068148 0.29170212
0.18690874 -0.12046142 0.29117021
0.18716033 -0.12024137 0.2906383
0.18761593 -0.12015334 0.29042554
-0.17009085 -0.11163381 0.2711702
-0.16960405 -0.11167761 0.27127659
-0.16911682 -0.11172141 0.27138299
-0.16856308 -0.11172141 0.27138299
-0.16814105 -0.11180899 0.27159575
-0.16771814 -0.11189658 0.27180851
-0.16729438 -0.11198417 0.27202126
-0.16673933 -0.11198417 0.27202126
-0.16598931 -0.11185279 0.27170214
-0.16524059 -0.11172141 0.27138299
-0.16449316 -0.11159002 0.27106383
-0.16387573 -0.11154622 0.27095744
-0.16325873 -0.11150243 0.27085108
-0.16270606 -0.11150243 0.27085108
-0.16221708 -0.11154622 0.27095744
-0.1619181 -0.11172141 0.27138299
-0.16168062 -0.11194038 0.2719149
-0.16156706 -0.11224695 0.27265957
-0.16151327 -0.11259731 0.27351063
-0.16145602 -0.11294767 0.2743617
-0.1613953 -0.11329803 0.27521276
-0.16120675 -0.1135608 0.27585107
-0.16076779 -0.11364839 0.27606383
-0.056726687 -0.12801321 0.31095746
-0.056111373 -0.12805699 0.31106383
-0.055419739 -0.1279256 0.31074467
-0.054673143 -0.12766284 0.3101064
-0.053947683 -0.12744385 0.30957446
-0.053261045 -0.12731248 0.30925533
-0.052593809 -0.12722488 0.30904254
-0.051945332 -0.1271811 0.30893618
-0.051297288 -0.12713729 0.30882978
-0.050667129 -0.12713729 0.30882978
-0.050054211 -0.1271811 0.30893618
-0.049474895 -0.12731248 0.30925533
-0.048860669 -0.12735626 0.3093617
-0.04822943 -0.12735626 0.3093617
-0.047581822 -0.12731248 0.30925533
-0.046934642 -0.12726869 0.30914894
-0.046271969 -0.1271811 0.30893618
-0.045594443 -0.1270497 0.30861703
-0.044887222 -0.12683073 0.30808511
-0.044166889 -0.12656796 0.30744681
-0.043479294 -0.12639278 0.30702129
-0.042852826 -0.12639278 0.30702129
-0.042284884 -0.12656796 0.30744681
-0.035800483 -0.12805699 0.31106383
-0.035201848 -0.12818837 0.31138298
-0.034531053 -0.12805699 0.31106383
-0.033792008 -0.12766284 0.3101064
-0.032999989 -0.1270497 0.30861703
-0.032202892 -0.12639278 0.30702129
-0.031456072 -0.12591103 0.30585107
-0.030767648 -0.12564826 0.30521277
-0.030102843 -0.12547308 0.30478725
-0.029450065 -0.1253417 0.3044681
-0.028788514 -0.12516651 0.30404255
-0.028148415 -0.12507892 0.30382979
-0.0275381 -0.12512273 0.30393618
-0.026965037 -0.1253417 0.3044681
-0.026399007 -0.12560447 0.30510637
-0.025830373 -0.12586723 0.30574468
-0.00047056112 -0.067619696 0.16425532
-0.00013557902 -0.067707285 0.16446808
0.00020014199 -0.067751087 0.16457447
0.00053629716 -0.067794882 0.16468085
0.00087232288 -0.067794882 0.16468085
0.0012067874 -0.067707285 0.16446808
0.0015393862 -0.067575902 0.16414894
0.001871897 -0.067488313 0.16393617
0.0022049716 -0.067444518 0.16382979
0.0025392608 -0.067444518 0.16382979
0.0028735499 -0.067444518 0.16382979
0.0032078391 -0.067444518 0.16382979
0.0035444284 -0.067488313 0.16393617
0.003883969 -0.067575902 0.16414894
0.0042298464 -0.067751087 0.16457447
0.0045804116 -0.06797006 0.16510639
0.0049299793 -0.068145238 0.16553192
0.0052778972 -0.068276621 0.16585106
0.0056199138 -0.068320423 0.16595745
0.0059509049 -0.068232827 0.16574468
0.063614734 -0.1171082 0.28446808
0.064219192 -0.11715201 0.28457448
0.064775631 -0.1171082 0.28446808
0.065331638 -0.11706441 0.28436169
0.065837897 -0.11693303 0.28404257
0.066367716 -0.11684543 0.28382978
0.066946864 -0.11684543 0.28382978
0.067526013 -0.11684543 0.28382978
0.068105154 -0.11684543 0.28382978
0.068684302 -0.11684543 0.28382978
0.069263443 -0.11684543 0.28382978
0.069842592 -0.11684543 0.28382978
0.07044813 -0.11688923 0.28393617
0.071133941 -0.11706441 0.28436169
0.071848318 -0.11728338 0.2848936
0.072483726 -0.11737098 0.28510639
0.073038213 -0.11732718 0.285
0.073509827 -0.11715201 0.28457448
0.074007399 -0.11702062 0.28425533
0.074559495 -0.11697682 0.28414893
0.09487965 -0.12069941 0.29319149
0.095685758 -0.12096219 0.2938298
0.09659905 -0.12135633 0.29478723
0.097516261 -0.1217505 0.29574469
0.098260894 -0.12192567 0.2961702
0.1852172 -0.12188188 0.29606384
0.18562101 -0.1217505 0.29574469
0.18575554 -0.12144392 0.29499999
0.18588705 -0.12113736 0.29425532
0.18601553 -0.1208308 0.29351065
0.18627623 -0.12061182 0.29297873
0.18639904 -0.12030525 0.29223403
0.18651883 -0.11999869 0.29148936
0.1866356 -0.11969212 0.29074469
0.18688631 -0.11947315 0.29021278
-0.17055796 -0.11138555 0.2719149
-0.16993661 -0.11134197 0.27180851
-0.16931571 -0.1112984 0.27170214
-0.16876131 -0.1112984 0.27170214
-0.16827276 -0.11134197 0.27180851
-0.16798073 -0.11151628 0.27223405
-0.16755609 -0.11160344 0.27244681
-0.16686976 -0.11151628 0.27223405
-0.16605429 -0.11134197 0.27180851
-0.16524059 -0.11116766 0.27138299
-0.16462228 -0.11112408 0.27127659
-0.1640044 -0.1110805 0.2711702
-0.16345109 -0.1110805 0.2711702
-0.16289777 -0.1110805 0.2711702
-0.16247185 -0.11116766 0.27138299
-0.16204505 -0.11125481 0.27159575
-0.16168062 -0.11138555 0.2719149
-0.16137794 -0.11155985 0.27234042
-0.16119917 -0.11182133 0.27297872
-0.1612682 -0.11225711 0.27404255
-0.16127051 -0.11264931 0.27500001
-0.16114457 -0.11295436 0.27574468
-0.056245703 -0.12772731 0.3118085
-0.055590495 -0.12768374 0.31170213
-0.054841943 -0.12742227 0.31106383
-0.054040384 -0.12703007 0.3101064
-0.053279366 -0.12672502 0.3093617
-0.052575707 -0.12655072 0.30893618
-0.051927444 -0.12650713 0.30882978
-0.051314961 -0.12655072 0.30893618
-0.050719492 -0.12663788 0.30914894
-0.050140392 -0.1267686 0.30946809
-0.049559992 -0.12689935 0.30978724
-0.048944682 -0.12694292 0.30989361
-0.048279185 -0.12685576 0.30968085
-0.047614556 -0.1267686 0.30946809
-0.046950795 -0.12668146 0.30925533
-0.046271969 -0.12655072 0.30893618
-0.045610156 -0.12646355 0.30872339
-0.044949219 -0.12637641 0.30851063
-0.044319715 -0.12637641 0.30851063
-0.043690208 -0.12637641 0.30851063
-0.043060701 -0.12637641 0.30851063
-0.042475093 -0.12650713 0.30882978
-0.041902594 -0.12668146 0.30925533
-0.03629813 -0.12694292 0.30989361
-0.035678048 -0.1269865 0.31
-0.035081584 -0.12711723 0.31031916
-0.034436576 -0.12707365 0.31021276
-0.033722453 -0.1267686 0.30946809
-0.032965861 -0.12628925 0.30829787
-0.032214049 -0.12580989 0.30712765
-0.031521715 -0.12554841 0.30648935
-0.030874887 -0.12546127 0.30627659
-0.030218419 -0.12533052 0.30595744
-0.029552964 -0.12515622 0.30553192
-0.028869098 -0.12489475 0.30489361
-0.028207552 -0.12472044 0.3044681
-0.027586294 -0.12472044 0.3044681
-0.027002722 -0.12489475 0.30489361
-0.026454234 -0.12524337 0.30574468
-0.025893286 -0.12554841 0.30648935
-0.001141615 -0.067328118 0.1643617
-0.00080624042 -0.067328118 0.1643617
-0.00047117061 -0.067371696 0.16446808
-0.00013575441 -0.067458853 0.16468085
0.00020065949 -0.067589588 0.16500001
0.00053768291 -0.067633167 0.16510639
0.00087401347 -0.067589588 0.16500001
0.0012083487 -0.067458853 0.16468085
0.0015413815 -0.067328118 0.1643617
0.0018743266 -0.067240961 0.16414894
0.002207835 -0.067197382 0.16404255
0.0025425584 -0.067197382 0.16404255
0.0028772817 -0.067197382 0.16404255
0.0032120051 -0.067197382 0.16404255
0.0035467283 -0.067197382 0.16404255
0.003883969 -0.067240961 0.16414894
0.004227112 -0.067371696 0.16446808
0.0045745089 -0.06754601 0.16489361
0.0049173054 -0.067633167 0.16510639
0.0052575851 -0.067676745 0.16521277
0.0055910936 -0.067633167 0.16510639
0.0059203482 -0.06754601 0.16489361
0.064920977 -0.11678923 0.28510639
0.065478288 -0.11674565 0.285
0.065985844 -0.11661492 0.28468084
0.066492096 -0.11648418 0.28436169
0.067022145 -0.11639702 0.28414893
0.067576632 -0.11635345 0.28404257
0.068130687 -0.11630987 0.28393617
0.068658561 -0.11622272 0.28372341
0.069185562 -0.11613555 0.28351063
0.069764055 -0.11613555 0.28351063
0.070395343 -0.11622272 0.28372341
0.071133941 -0.11648418 0.28436169
0.071875148 -0.11674565 0.285
0.07256487 -0.11691996 0.28542554
0.073092736 -0.1168328 0.28521276
0.07356479 -0.11665849 0.28478724
0.074035093 -0.11648418 0.28436169
0.074615322 -0.11648418 0.28436169
0.075279951 -0.11661492 0.28468084
0.076030925 -0.11687639 0.28531915
0.076784506 -0.11713786 0.28595746
0.09467309 -0.11983969 0.29255319
0.095443249 -0.12005758 0.2930851
0.096389882 -0.12049336 0.29414892
0.097340874 -0.12092915 0.29521278
0.098119713 -0.12114704 0.29574469
0.18468478 -0.12092915 0.29521278
0.18508685 -0.12079841 0.29489362
0.18535362 -0.12058052 0.29436171
0.18561824 -0.12036263 0.2938298
0.18601553 -0.1202319 0.29351065
0.1864115 -0.12010116 0.29319149
0.18660261 -0.11983969 0.29255319
0.18658692 -0.11944749 0.29159576
0.1866356 -0.11909887 0.29074469
0.1868178 -0.1188374 0.29010639
-0.1708916 -0.11104752 0.27244681
-0.17026916 -0.11100415 0.27234042
-0.16958088 -0.11091743 0.27212766
-0.16902561 -0.11091743 0.27212766
-0.16853622 -0.1109608 0.27223405
-0.16817766 -0.11109088 0.27255321
-0.16768694 -0.11113424 0.27265957
-0.16700017 -0.11104752 0.27244681
-0.16611929 -0.11083072 0.2719149
-0.16530535 -0.11065727 0.27148935
-0.16468684 -0.11061391 0.27138299
-0.16413309 -0.11061391 0.27138299
-0.16357934 -0.11061391 0.27138299
-0.1630256 -0.11061391 0.27138299
-0.16259922 -0.11070063 0.27159575
-0.16217199 -0.11078735 0.27180851
-0.16168062 -0.11083072 0.2719149
-0.16131492 -0.1109608 0.27223405
-0.16107354 -0.1111776 0.27276596
-0.16108039 -0.11156785 0.27372339
-0.16108336 -0.1119581 0.27468085
-0.16095807 -0.11226162 0.27542552
-0.055969954 -0.12791495 0.31382978
-0.055217061 -0.12765479 0.3131915
-0.054281384 -0.12696101 0.31148937
-0.053407621 -0.12639731 0.3101064
-0.052611917 -0.12600707 0.30914894
-0.051945332 -0.12592034 0.30893618
-0.051350299 -0.12600707 0.30914894
-0.050806757 -0.12622386 0.30968085
-0.050243814 -0.12639731 0.3101064
-0.049628068 -0.12644067 0.31021276
-0.048978288 -0.12639731 0.3101064
-0.048312355 -0.12631059 0.30989361
-0.047630921 -0.1261805 0.30957446
-0.046934642 -0.12600707 0.30914894
-0.046256032 -0.12587698 0.30882978
-0.045594443 -0.12579025 0.30861703
-0.044980217 -0.12583362 0.30872339
-0.044396125 -0.1259637 0.30904254
-0.043825801 -0.12613715 0.30946809
-0.043238886 -0.12626724 0.30978724
-0.042636037 -0.12635395 0.31
-0.04203232 -0.12644067 0.31021276
-0.041427735 -0.12652738 0.31042552
-0.040808305 -0.12657076 0.31053191
-0.040147148 -0.12648404 0.31031916
-0.039486863 -0.12639731 0.3101064
-0.038867429 -0.12644067 0.31021276
-0.038273785 -0.12657076 0.31053191
-0.037653051 -0.12661412 0.31063831
-0.036981169 -0.12648404 0.31031916
-0.03629813 -0.12631059 0.30989361
-0.035641316 -0.12622386 0.30968085
-0.03502145 -0.12626724 0.30978724
-0.034389339 -0.12626724 0.30978724
-0.033710856 -0.12609379 0.3093617
-0.032988612 -0.12574689 0.30851063
-0.032281 -0.12544337 0.30776596
-0.031609248 -0.12526992 0.30734041
-0.030971406 -0.12522657 0.30723405
-0.030323492 -0.12513985 0.30702129
-0.029645573 -0.12492304 0.30648935
-0.028959757 -0.12466288 0.30585107
-0.028286397 -0.12444607 0.30531916
-0.027644126 -0.12435934 0.30510637
-0.027040411 -0.12444607 0.30531916
-0.02648185 -0.12474959 0.30606383
-0.02592025 -0.12505312 0.3068085
-0.025329299 -0.12522657 0.30723405
-0.0018252677 -0.067469716 0.16553192
-0.0014798575 -0.067122824 0.16468085
-0.0011430929 -0.06707947 0.16457447
-0.00080728414 -0.06707947 0.16457447
-0.00047208494 -0.067166187 0.16478723
-0.00013619289 -0.067339629 0.16521277
0.00020143573 -0.067513078 0.1656383
0.00054010801 -0.067599796 0.16585106
0.00087795802 -0.067556433 0.16574468
0.0012130322 -0.067382991 0.16531914
0.0015463696 -0.067209549 0.16489361
0.0018804002 -0.067122824 0.16468085
0.0022149943 -0.06707947 0.16457447
0.0025524518 -0.067122824 0.16468085
0.0028884774 -0.067122824 0.16468085
0.0032224203 -0.06707947 0.16457447
0.003558229 -0.06707947 0.16457447
0.0038990718 -0.067166187 0.16478723
0.004238049 -0.067209549 0.16489361
0.0045804116 -0.067296274 0.16510639
0.0049204738 -0.067339629 0.16521277
0.0052508144 -0.067252912 0.16500001
0.005580286 -0.067166187 0.16478723
0.0059088902 -0.06707947 0.16457447
0.0062406617 -0.0670361 0.16446808
0.065600492 -0.11638092 0.28553191
0.066133797 -0.1162942 0.28531915
0.066641353 -0.11616412 0.285
0.067147605 -0.11603403 0.28468084
0.06767787 -0.11594731 0.28446808
0.068258315 -0.11594731 0.28446808
0.068787277 -0.11586059 0.28425533
0.069341332 -0.11581723 0.28414893
0.069868773 -0.11573051 0.28393617
0.070500918 -0.11581723 0.28414893
0.071187168 -0.11599068 0.28457448
0.071901977 -0.11620748 0.28510639
0.072591908 -0.11638092 0.28553191
0.073147267 -0.11633757 0.28542554
0.073619746 -0.11616412 0.285
0.074090496 -0.11599068 0.28457448
0.074671157 -0.11599068 0.28457448
0.075308084 -0.11607739 0.28478724
0.076002575 -0.11625084 0.28521276
0.076727368 -0.11646764 0.28574467
0.077425554 -0.11664109 0.28617021
0.078067474 -0.11672781 0.28638297
0.094604239 -0.11915603 0.29234043
0.095373966 -0.11937283 0.29287234
0.096250445 -0.11971972 0.2937234
0.09716548 -0.12010998 0.29468086
0.097907946 -0.12028341 0.29510638
0.18415235 -0.11997989 0.29436171
0.18461944 -0.11989316 0.29414892
0.18495169 -0.11971972 0.2937234
0.18541662 -0.119633 0.29351065
0.18601553 -0.119633 0.29351065
0.18647915 -0.11954628 0.29329789
0.18667048 -0.11928611 0.29265958
0.18665498 -0.11889586 0.29170212
0.18677217 -0.11859234 0.29095745
-0.17053522 -0.11062104 0.27276596
-0.16997865 -0.11062104 0.27276596
-0.16942208 -0.11062104 0.27276596
-0.16893137 -0.11066417 0.27287233
-0.16844022 -0.11070732 0.27297872
-0.16781779 -0.11066417 0.27287233
-0.16700017 -0.1104916 0.27244681
-0.16618428 -0.11031902 0.27202126
-0.16537014 -0.11014645 0.27159575
-0.16481595 -0.11014645 0.27159575
-0.16419743 -0.1101033 0.27148935
-0.16357934 -0.11006016 0.27138299
-0.1630256 -0.11006016 0.27138299
-0.16253553 -0.1101033 0.27148935
-0.16217199 -0.11023273 0.27180851
-0.16174388 -0.11031902 0.27202126
-0.16131492 -0.11040532 0.27223405
-0.16107354 -0.11062104 0.27276596
-0.16101779 -0.11096618 0.27361703
-0.1608962 -0.11126819 0.2743617
-0.16058506 -0.11144077 0.27478725
-0.055685956 -0.12809432 0.31585106
-0.054652158 -0.1271883 0.31361702
-0.053609155 -0.12623914 0.31127658
-0.052648123 -0.12546255 0.3093617
-0.051963218 -0.1253331 0.30904254
-0.051385637 -0.12546255 0.3093617
-0.050841663 -0.12567826 0.30989361
-0.050278284 -0.12585084 0.31031916
-0.049662102 -0.12589398 0.31042552
-0.048978288 -0.12576456 0.3101064
-0.04829577 -0.12563512 0.30978724
-0.047614556 -0.12550569 0.30946809
-0.046934642 -0.12537625 0.30914894
-0.046256032 -0.12524682 0.30882978
-0.045610156 -0.12520367 0.30872339
-0.044995718 -0.12524682 0.30882978
-0.044441976 -0.12546255 0.3093617
-0.043916196 -0.12576456 0.3101064
-0.043342825 -0.12593712 0.31053191
-0.042753089 -0.12606657 0.31085107
-0.04211881 -0.12606657 0.31085107
-0.041484527 -0.12606657 0.31085107
-0.040822286 -0.12598027 0.31063831
-0.040147148 -0.12585084 0.31031916
-0.039486863 -0.12576456 0.3101064
-0.0388541 -0.12576456 0.3101064
-0.038273785 -0.12593712 0.31053191
-0.037665945 -0.12602341 0.31074467
-0.037031882 -0.12602341 0.31074467
-0.036347974 -0.12585084 0.31031916
-0.035678048 -0.12572141 0.31
-0.035033476 -0.12567826 0.30989361
-0.034401149 -0.12567826 0.30989361
-0.033745635 -0.12559198 0.30968085
-0.033056866 -0.12537625 0.30914894
-0.032370266 -0.12516053 0.30861703
-0.031696778 -0.12498795 0.30819148
-0.031046474 -0.12490167 0.30797872
-0.030386534 -0.12477224 0.30765957
-0.029727893 -0.1246428 0.30734041
-0.029060485 -0.12447023 0.3069149
-0.028384956 -0.12425452 0.30638298
-0.027721236 -0.12408193 0.30595744
-0.027106363 -0.12412508 0.30606383
-0.026527872 -0.1243408 0.30659574
-0.025974175 -0.12468595 0.30744681
-0.025381923 -0.12485854 0.30787235
-0.0025152571 -0.067520246 0.16648936
-0.0021699807 -0.067347676 0.16606383
-0.0018252677 -0.067131951 0.16553192
-0.0014827255 -0.066916235 0.16500001
-0.0011453095 -0.066873088 0.16489361
-0.00080937147 -0.066916235 0.16500001
-0.00047360876 -0.067045666 0.16531914
-0.00013671907 -0.067261383 0.16585106
0.00020234135 -0.067477107 0.16638298
0.00054287957 -0.067606531 0.16670212
0.00088190264 -0.067520246 0.16648936
0.0012184962 -0.067347676 0.16606383
0.0015523557 -0.067131951 0.16553192
0.0018864739 -0.06700252 0.16521277
0.002223585 -0.06700252 0.16521277
0.0025606961 -0.06700252 0.16521277
0.0028996731 -0.067045666 0.16531914
0.0032370011 -0.067045666 0.16531914
0.0035766298 -0.067088813 0.16542554
0.003916692 -0.067131951 0.16553192
0.0042544543 -0.067131951 0.16553192
0.0045892657 -0.067088813 0.16542554
0.0049236421 -0.067045666 0.16531914
0.0052508144 -0.066916235 0.16500001
0.005580286 -0.066829942 0.16478723
0.0059088902 -0.066743657 0.16457447
0.0062366249 -0.066657372 0.1643617
0.0065719998 -0.066657372 0.1643617
0.066691101 -0.11566887 0.28521276
0.067197785 -0.11553943 0.2848936
0.067804419 -0.11558259 0.285
0.068462528 -0.11571202 0.28531915
0.0690962 -0.1157983 0.28553191
0.069704778 -0.11584145 0.2856383
0.070261434 -0.1157983 0.28553191
0.070791267 -0.11571202 0.28531915
0.071346834 -0.11566887 0.28521276
0.071982466 -0.11575516 0.28542554
0.072591908 -0.1157983 0.28553191
0.073174529 -0.1157983 0.28553191
0.073674701 -0.11566887 0.28521276
0.074201278 -0.11558259 0.285
0.074754894 -0.11553943 0.2848936
0.075364344 -0.11558259 0.285
0.076002575 -0.11566887 0.28521276
0.076670237 -0.1157983 0.28553191
0.077367991 -0.11597088 0.28595746
0.078038476 -0.11610032 0.28627661
0.078681052 -0.1161866 0.28648937
0.09474194 -0.11873209 0.29276595
0.095443249 -0.11886152 0.2930851
0.096250445 -0.11912039 0.2937234
0.097060248 -0.11937925 0.29436171
0.097766772 -0.11950868 0.29468086
0.18361993 -0.1190341 0.29351065
0.18415205 -0.11899095 0.29340425
0.18461676 -0.11890467 0.29319149
0.18514779 -0.11886152 0.2930851
0.18581326 -0.11890467 0.29319149
0.18627623 -0.11881838 0.29297873
0.1864669 -0.11855952 0.29234043
0.18651883 -0.11821436 0.29148936
0.18677217 -0.11799864 0.29095745
-0.17080125 -0.11023617 0.27319148
-0.17037641 -0.11032202 0.27340424
-0.16988461 -0.11036495 0.27351063
-0.16939239 -0.11040788 0.27361703
-0.16870278 -0.11032202 0.27340424
-0.16794865 -0.11019325 0.27308512
-0.16700017 -0.10993569 0.27244681
-0.16611929 -0.10972105 0.2719149
-0.16537014 -0.10959227 0.27159575
-0.16475138 -0.10954934 0.27148935
-0.16413309 -0.10950641 0.27138299
-0.16351521 -0.10946348 0.27127659
-0.16289777 -0.10942055 0.2711702
-0.16247185 -0.10950641 0.27138299
-0.16217199 -0.10967812 0.27180851
-0.16187039 -0.10984983 0.27223405
-0.16150403 -0.10997862 0.27255321
-0.16119917 -0.11015031 0.27297872
-0.16101779 -0.11040788 0.27361703
-0.16083381 -0.11066543 0.27425531
-0.16046071 -0.11079422 0.27457446
-0.1598385 -0.11075129 0.27446809
-0.048279185 -0.12496008 0.30968085
-0.047598187 -0.1248313 0.3093617
-0.046934642 -0.12474545 0.30914894
-0.046287898 -0.12470251 0.30904254
-0.045641594 -0.1246596 0.30893618
-0.045026716 -0.12470251 0.30904254
-0.044472538 -0.12491715 0.30957446
-0.043931257 -0.12517472 0.31021276
-0.043387372 -0.12543228 0.31085107
-0.042796984 -0.12556106 0.31117022
-0.042162053 -0.12556106 0.31117022
-0.041498728 -0.12547521 0.31095746
-0.040822286 -0.12534642 0.31063831
-0.040133387 -0.12517472 0.31021276
-0.039473314 -0.12508887 0.31
-0.038867429 -0.12517472 0.31021276
-0.038286898 -0.12534642 0.31063831
-0.037704628 -0.12551813 0.31106383
-0.037082594 -0.12556106 0.31117022
-0.036435198 -0.12551813 0.31106383
-0.03575151 -0.12534642 0.31063831
-0.035093609 -0.12526056 0.31042552
-0.034448385 -0.12521765 0.31031916
-0.033792008 -0.1251318 0.3101064
-0.033125117 -0.12500301 0.30978724
-0.032448374 -0.1248313 0.3093617
-0.031773366 -0.1246596 0.30893618
-0.031100096 -0.12448788 0.30851063
-0.030439068 -0.1243591 0.30819148
-0.029789634 -0.12427325 0.30797872
-0.029141068 -0.1241874 0.30776596
-0.028483516 -0.12405862 0.30744681
-0.027827263 -0.12392984 0.30712765
-0.027210003 -0.12397277 0.30723405
-0.026629124 -0.1241874 0.30776596
-0.026091013 -0.12461667 0.30882978
-0.025548562 -0.12504593 0.30989361
-0.0025152571 -0.067180529 0.16648936
-0.0021713707 -0.067051753 0.16617021
-0.0018287867 -0.06692297 0.16585106
-0.0014875054 -0.066794194 0.16553192
-0.0011490041 -0.066751264 0.16542554
-0.00081145886 -0.066751264 0.16542554
-0.00047513261 -0.06692297 0.16585106
-0.00013715756 -0.067137606 0.16638298
0.00020298822 -0.067352243 0.1669149
0.00054426532 -0.067438088 0.16712765
0.00088472024 -0.067395166 0.16702127
0.0012216186 -0.067180529 0.16648936
0.001557344 -0.067008823 0.16606383
0.0018925475 -0.06688004 0.16574468
0.0022307439 -0.06688004 0.16574468
0.0025689404 -0.06688004 0.16574468
0.0029090026 -0.06692297 0.16585106
0.0032494995 -0.0669659 0.16595745
0.00358813 -0.0669659 0.16595745
0.0039267605 -0.0669659 0.16595745
0.0042626569 -0.06692297 0.16585106
0.0045951679 -0.066837117 0.1656383
0.0049236421 -0.066708334 0.16531914
0.0052508144 -0.066579558 0.16500001
0.005580286 -0.066493705 0.16478723
0.0059127095 -0.066450775 0.16468085
0.0062446985 -0.066407852 0.16457447
0.0065762531 -0.066364922 0.16446808
0.0069073741 -0.066321991 0.1643617
0.068743326 -0.11560203 0.28648937
0.069482364 -0.11585959 0.28712767
0.070198037 -0.11607423 0.28765959
0.070732638 -0.11598837 0.2874468
0.071187191 -0.11577373 0.28691489
0.071586348 -0.11547325 0.28617021
0.072089776 -0.11534446 0.28585106
0.072645999 -0.11530153 0.28574467
0.073229052 -0.11530153 0.28574467
0.073757149 -0.11521568 0.28553191
0.074284375 -0.11512983 0.28531915
0.074866556 -0.11512983 0.28531915
0.075476877 -0.11517277 0.28542554
0.076087616 -0.11521568 0.28553191
0.07669881 -0.11525861 0.2856383
0.077367991 -0.1153874 0.28595746
0.078009479 -0.11547325 0.28617021
0.078651831 -0.1155591 0.28638297
0.07923618 -0.1155591 0.28638297
0.079761237 -0.11547325 0.28617021
0.080345161 -0.11547325 0.28617021
0.081019334 -0.11560203 0.28648937
0.091058299 -0.11800594 0.29244682
0.09414456 -0.11813471 0.29276595
0.09474194 -0.11813471 0.29276595
0.095443249 -0.11826349 0.2930851
0.096215583 -0.11847812 0.29361701
0.096990086 -0.11869276 0.29414892
0.097766772 -0.1189074 0.29468086
0.11347175 -0.12852302 0.31851065
0.11389295 -0.12826546 0.31787235
0.18328717 -0.11822057 0.29297873
0.18381821 -0.11817764 0.29287234
0.18434881 -0.11813471 0.29276595
0.18487899 -0.11809178 0.29265958
0.18547615 -0.11809178 0.29265958
0.18593805 -0.11800594 0.29244682
0.18612763 -0.11774837 0.29180852
0.18624654 -0.11744788 0.29106382
0.18656729 -0.11727618 0.2906383
-0.1707079 -0.10997771 0.27393618
-0.170215 -0.11002041 0.27404255
-0.16965583 -0.11002041 0.27404255
-0.16889971 -0.10989228 0.27372339
-0.16794865 -0.10963602 0.27308512
-0.16700017 -0.10937976 0.27244681
-0.16605429 -0.10912351 0.27180851
-0.16530535 -0.10899537 0.27148935
-0.16462228 -0.10890996 0.27127659
-0.1640044 -0.10886724 0.2711702
-0.16332284 -0.10878182 0.27095744
-0.16276996 -0.10878182 0.27095744
-0.16240816 -0.10890996 0.27127659
-0.16223547 -0.10916622 0.2719149
-0.16206017 -0.10942248 0.27255321
-0.16175617 -0.10959331 0.27297872
-0.16138764 -0.10972144 0.27329788
-0.16108039 -0.10989228 0.27372339
-0.16077143 -0.11006312 0.27414894
-0.16033636 -0.11014854 0.2743617
-0.15965264 -0.11006312 0.27414894
-0.15884629 -0.10989228 0.27372339
-0.046319772 -0.12415735 0.30925533
-0.045688745 -0.12415735 0.30925533
-0.045073219 -0.12420005 0.3093617
-0.044487823 -0.12432819 0.30968085
-0.043931257 -0.12454174 0.31021276
-0.043387372 -0.124798 0.31085107
-0.042796984 -0.12492613 0.31117022
-0.042176463 -0.12496883 0.31127658
-0.041498728 -0.12484071 0.31095746
-0.040808305 -0.12466986 0.31053191
-0.040133387 -0.12454174 0.31021276
-0.039486863 -0.12449903 0.3101064
-0.038894083 -0.12462715 0.31042552
-0.038313121 -0.124798 0.31085107
-0.037743315 -0.12501155 0.31138298
-0.037133303 -0.12509696 0.31159574
-0.036497504 -0.12509696 0.31159574
-0.035837214 -0.12501155 0.31138298
-0.035165768 -0.12488341 0.31106383
-0.034507435 -0.124798 0.31085107
-0.03384997 -0.12471258 0.31063831
-0.033181995 -0.12458445 0.31031916
-0.032504164 -0.1244136 0.30989361
-0.031828072 -0.12424277 0.30946809
-0.031153716 -0.12407193 0.30904254
-0.030481098 -0.12390109 0.30861703
-0.029830797 -0.12381568 0.30840427
-0.029191434 -0.12377296 0.30829787
-0.028562361 -0.12377296 0.30829787
-0.027942929 -0.12381568 0.30840427
-0.027332485 -0.12390109 0.30861703
-0.026757991 -0.12415735 0.30925533
-0.02621684 -0.12458445 0.31031916
-0.025680121 -0.12505426 0.31148937
-0.00286227 -0.067011654 0.1669149
-0.0025184713 -0.066926233 0.16670212
-0.0021769311 -0.066883527 0.16659574
-0.0018346522 -0.066798106 0.16638298
-0.0014932412 -0.066712685 0.16617021
-0.0011526986 -0.066627271 0.16595745
-0.00081406801 -0.066627271 0.16595745
-0.00047635168 -0.066755392 0.16627659
-0.00013742063 -0.066926233 0.16670212
0.00020324696 -0.067097075 0.16712765
0.00054495828 -0.067182496 0.16734043
0.00088528375 -0.067097075 0.16712765
0.0012231797 -0.066926233 0.16670212
0.0015593392 -0.066755392 0.16627659
0.0018961916 -0.066669978 0.16606383
0.0022336077 -0.066627271 0.16595745
0.0025738871 -0.066669978 0.16606383
0.0029146005 -0.066712685 0.16617021
0.0032557482 -0.066755392 0.16627659
0.0035950302 -0.066755392 0.16627659
0.0039317948 -0.066712685 0.16617021
0.0042653913 -0.066627271 0.16595745
0.0045922166 -0.06645643 0.16553192
0.0049204738 -0.066328295 0.16521277
0.0052508144 -0.066242881 0.16500001
0.0055838884 -0.066200167 0.16489361
