# .PCD v0.7 - Point Cloud Data file format
VERSION 0.7
FIELDS x y z
SIZE 4 4 4
TYPE F F F
COUNT 1 1 1
WIDTH 1441
HEIGHT 1
VIEWPOINT 0 0 0 1 0 0 0
POINTS 1441
DATA ascii
0.14876826 -0.0030810339 0.31755319
0.14926605 -0.0030779373 0.31723404
0.14986308 -0.0030769052 0.31712765
0.15051016 -0.0030769052 0.31712765
0.14806519 -0.0024428584 0.31882977
0.1483684 -0.0024371527 0.3180851
0.14871842 -0.0024322621 0.3174468
0.14921598 -0.0024298166 0.31712765
0.088095807 0.095664077 0.31840426
0.088007502 0.09621723 0.3180851
0.088419333 0.095959798 0.31723404
0.08803694 0.096898675 0.3181915
0.088419333 0.096607104 0.31723404
0.0889173 0.096445121 0.31670213
0.088125244 0.097645774 0.31851065
0.088478632 0.097319633 0.3174468
0.088977031 0.097156562 0.31691489
0.08962369 0.097156562 0.31691489
0.090573363 0.097482696 0.31797871
0.091557905 0.097841457 0.31914893
0.088213533 0.09839417 0.31882977
0.088567585 0.098065868 0.31776595
0.08906664 0.097901709 0.31723404
0.089774109 0.097967371 0.3174468
0.090694577 0.098262854 0.31840426
0.088715844 0.098879494 0.31829786
0.089305587 0.0988134 0.3180851
0.090074971 0.098945595 0.31851065
0.088953048 0.099795088 0.31914893
0.087650627 0.10305116 0.31914893
0.088301837 0.10305116 0.31914893
0.089604266 0.10305116 0.31914893
0.090195306 0.10298245 0.31893617
0.09075518 0.10287941 0.31861702
0.09140531 0.10287941 0.31861702
0.092209116 0.10305116 0.31914893
0.095242426 0.1028107 0.31840426
0.095635809 0.1025359 0.31755319
0.096090227 0.1023298 0.31691489
0.096704416 0.10229545 0.31680852
0.097318158 0.1022611 0.31670213
0.097832754 0.1021237 0.31627661
0.098213114 0.1018489 0.31542554
0.098623335 0.10160844 0.31468084
0.099164754 0.10150538 0.31436169
0.086941414 0.10363323 0.31893617
0.087562971 0.10359866 0.31882977
0.088213533 0.10359866 0.31882977
0.08883445 0.10356411 0.31872341
0.089425065 0.10349497 0.31851065
0.089984715 0.10339127 0.3181915
0.090573363 0.10332213 0.31797871
0.091252707 0.1033567 0.3180851
0.091993965 0.1034604 0.31840426
0.09273652 0.10356411 0.31872341
0.093418024 0.10359866 0.31882977
0.094005816 0.10352953 0.31861702
0.094529532 0.10339127 0.3181915
0.094987854 0.10318386 0.31755319
0.095443577 0.10297645 0.31691489
0.09602572 0.10290731 0.31670213
0.096671939 0.10290731 0.31670213
0.097285464 0.10287274 0.31659573
0.097799845 0.10273448 0.31617022
0.098213114 0.10249251 0.31542554
0.098690018 0.10231967 0.3148936
0.099231876 0.10221598 0.31457448
0.099907525 0.10225053 0.31468084
0.10058362 0.10228511 0.31478724
0.10129435 0.10235424 0.315
0.10193709 0.10235424 0.315
0.10261449 0.10238881 0.31510639
0.10329231 0.10242337 0.31521276
0.10404073 0.10252707 0.31553191
0.10471985 0.10256165 0.3156383
0.10532839 0.10252707 0.31553191
0.10582931 0.10238881 0.31510639
0.10632849 0.10225053 0.31468084
0.10678977 0.1020777 0.31414893
0.10728526 0.10193943 0.31372342
0.10774241 0.10176659 0.3131915
0.10819739 0.10159375 0.31265956
0.10861319 0.10138635 0.31202129
0.10906361 0.10121351 0.31148937
0.1095868 0.10110981 0.31117022
0.11014637 0.10104068 0.31095746
0.11074296 0.10100611 0.31085107
0.11130101 0.10093698 0.31063831
0.11193486 0.10093698 0.31063831
0.11256871 0.10093698 0.31063831
0.11324131 0.10097153 0.31074467
0.11395335 0.10104068 0.31095746
0.11478386 0.10121351 0.31148937
0.11561655 0.10138635 0.31202129
0.11633248 0.10145549 0.31223404
0.11685003 0.10135178 0.31191489
0.11884506 0.10034933 0.30882978
0.11935174 0.10024562 0.30851063
0.11993989 0.10021106 0.30840427
0.12048598 0.10014192 0.30819148
0.12103123 0.10007279 0.30797872
0.12149156 0.099934518 0.3075532
0.1219079 0.099761687 0.30702129
0.12227962 0.099554278 0.30638298
0.12281944 0.099485144 0.30617023
0.12344417 0.099485144 0.30617023
0.12415511 0.099554278 0.30638298
0.1248236 0.099588841 0.30648935
0.12536189 0.099519707 0.30627659
0.12598684 0.099519707 0.30627659
0.12691964 0.099761687 0.30702129
0.12798806 0.10010736 0.30808511
0.085639857 0.10428401 0.31893617
0.08620429 0.10417966 0.31861702
0.086825423 0.10414488 0.31851065
0.087446108 0.10411009 0.31840426
0.088066369 0.10407531 0.31829786
0.088686198 0.10404053 0.3181915
0.08927571 0.10397094 0.31797871
0.089894459 0.10393617 0.31787235
0.090543069 0.10393617 0.31787235
0.091191672 0.10393617 0.31787235
0.091871016 0.10397094 0.31797871
0.092519835 0.10397094 0.31797871
0.093168661 0.10397094 0.31797871
0.093754716 0.10390138 0.31776595
0.094276689 0.10376225 0.31734043
0.094828747 0.10365789 0.31702128
0.095347457 0.10351875 0.31659573
0.095961213 0.10348397 0.31648937
0.096607 0.10348397 0.31648937
0.097187407 0.10341441 0.31627661
0.097701125 0.10327526 0.31585106
0.098179989 0.10310134 0.31531915
0.098756708 0.10303178 0.31510639
0.099332549 0.1029622 0.3148936
0.099975079 0.1029622 0.3148936
0.1006176 0.1029622 0.3148936
0.10126013 0.1029622 0.3148936
0.10186824 0.10292742 0.31478724
0.10254519 0.1029622 0.3148936
0.10322259 0.10299698 0.315
0.10393549 0.10306655 0.31521276
0.10457867 0.10306655 0.31521276
0.10518634 0.10303178 0.31510639
0.10572212 0.10292742 0.31478724
0.10622065 0.10278828 0.31436169
0.10671744 0.10264914 0.31393617
0.10717612 0.10247522 0.31340426
0.10763262 0.1023013 0.31287235
0.10808696 0.10212738 0.31234044
0.10853911 0.10195345 0.3118085
0.10902636 0.10181431 0.31138298
0.10954933 0.10170995 0.31106383
0.11010868 0.10164039 0.31085107
0.11070506 0.1016056 0.31074467
0.11126289 0.10153604 0.31053191
0.11185818 0.10150125 0.31042552
0.11249159 0.10150125 0.31042552
0.11316378 0.10153604 0.31053191
0.11387537 0.1016056 0.31074467
0.11466625 0.10174475 0.31117022
0.11541945 0.1018491 0.31148937
0.1161343 0.10191867 0.31170213
0.11665076 0.10181431 0.31138298
0.1170457 0.1016056 0.31074467
0.11739776 0.10136212 0.31
0.11770626 0.10108384 0.30914894
0.11817417 0.1009447 0.30872339
0.11872225 0.10087512 0.30851063
0.11926944 0.10080556 0.30829787
0.11981577 0.10073599 0.30808511
0.12040281 0.10070121 0.30797872
0.12098943 0.10066643 0.30787235
0.12149156 0.10056207 0.3075532
0.1219079 0.10038815 0.30702129
0.12232208 0.10021422 0.30648935
0.12286211 0.10014465 0.30627659
0.12352995 0.10017944 0.30638298
0.12424133 0.10024901 0.30659574
0.1248236 0.10021422 0.30648935
0.12536189 0.10014465 0.30627659
0.12598684 0.10014465 0.30627659
0.12683168 0.10031857 0.3068085
0.12785546 0.10063164 0.30776596
0.12870552 0.10080556 0.30829787
0.12924533 0.10073599 0.30808511
0.12929097 0.10028379 0.30670214
0.12937602 0.099866375 0.30542552
0.12968227 0.09962289 0.30468085
0.13025846 0.099588096 0.30457446
0.13087994 0.099588096 0.30457446
0.13580179 0.098648928 0.30170214
0.13656171 0.098753273 0.30202127
0.13732292 0.098857626 0.30234042
0.13789131 0.098822847 0.30223405
0.138313 0.0986837 0.30180851
0.13873294 0.098544568 0.30138299
0.13920034 0.098440215 0.30106384
0.13986404 0.098474994 0.3011702
0.14057784 0.098544568 0.30138299
0.14129247 0.098614134 0.30159575
0.14195792 0.098648928 0.30170214
0.085045777 0.10500479 0.31914893
0.085497029 0.10475978 0.31840426
0.086089157 0.10468978 0.3181915
0.086680412 0.10461977 0.31797871
0.087300025 0.10458478 0.31787235
0.087919198 0.10454977 0.31776595
0.088508286 0.10447977 0.31755319
0.089156248 0.10447977 0.31755319
0.089834288 0.10451478 0.31765959
0.090543069 0.10458478 0.31787235
0.091191672 0.10458478 0.31787235
0.091809541 0.10454977 0.31776595
0.092426986 0.10451478 0.31765959
0.09301281 0.10444476 0.3174468
0.093597777 0.10437477 0.31723404
0.094213478 0.10433976 0.31712765
0.094796918 0.10426976 0.31691489
0.095379502 0.10419976 0.31670213
0.095993459 0.10416476 0.31659573
0.096574523 0.10409475 0.31638297
0.097122021 0.10398974 0.31606382
0.097635314 0.10384975 0.3156383
0.098179989 0.10374474 0.31531915
0.098790042 0.10370973 0.31521276
0.099399671 0.10367474 0.31510639
0.10000885 0.10363973 0.315
0.10054962 0.10353473 0.31468084
0.1011233 0.10346472 0.31446809
0.10173053 0.10342972 0.31436169
0.10237198 0.10342972 0.31436169
0.10301343 0.10342972 0.31436169
0.10368995 0.10346472 0.31446809
0.10429631 0.10342972 0.31436169
0.10490225 0.10339472 0.31425533
0.10547201 0.10332471 0.31404254
0.10600498 0.10321972 0.31372342
0.10650046 0.10307971 0.31329787
0.10695783 0.1029047 0.31276596
0.10741304 0.10272969 0.31223404
0.10790288 0.10258968 0.3118085
0.10839099 0.10244968 0.31138298
0.10891461 0.10234467 0.31106383
0.1094744 0.10227467 0.31085107
0.11003332 0.10220467 0.31063831
0.11059136 0.10213466 0.31042552
0.11114854 0.10206466 0.31021276
0.11174319 0.10202967 0.3101064
0.1123374 0.10199466 0.31
0.11296994 0.10199466 0.31
0.11364148 0.10202967 0.3101064
0.11435264 0.10209966 0.31031916
0.11506467 0.10216966 0.31053191
0.11565866 0.10213466 0.31042552
0.11621237 0.10206466 0.31021276
0.11668507 0.10192466 0.30978724
0.11711574 0.10174965 0.30925533
0.11758474 0.10160964 0.30882978
0.11805202 0.10146964 0.30840427
0.11851755 0.10132962 0.30797872
0.11906366 0.10125963 0.30776596
0.1196089 0.10118963 0.3075532
0.12023646 0.10118963 0.3075532
0.1208222 0.10115462 0.30744681
0.12136549 0.10108462 0.30723405
0.12186566 0.10097961 0.3069149
0.12236454 0.1008746 0.30659574
0.12290478 0.1008046 0.30638298
0.12357283 0.1008396 0.30648935
0.12424133 0.1008746 0.30659574
0.1248236 0.1008396 0.30648935
0.12536189 0.1007696 0.30627659
0.12589933 0.1006996 0.30606383
0.12665577 0.1008046 0.30638298
0.1275461 0.10101461 0.30702129
0.12839463 0.10118963 0.3075532
0.12893292 0.10111962 0.30734041
0.12915643 0.1008046 0.30638298
0.1292859 0.10041959 0.30521277
0.12963699 0.10020957 0.30457446
0.13016747 0.10013957 0.3043617
0.13078851 0.10013957 0.3043617
0.13122584 0.099999569 0.30393618
0.13152295 0.099754557 0.30319148
0.13167796 0.099404536 0.30212766
0.13220127 0.099334538 0.3019149
0.13295773 0.099439546 0.30223405
0.13366845 0.099509545 0.30244681
0.13428558 0.099509545 0.30244681
0.1347129 0.099369533 0.30202127
0.13523383 0.099299535 0.30180851
0.13589756 0.099334538 0.3019149
0.13665791 0.099439546 0.30223405
0.13741955 0.09954454 0.30255318
0.13798837 0.099509545 0.30244681
0.13841049 0.099369533 0.30202127
0.13878191 0.099194527 0.30148935
0.13929871 0.099124528 0.30127659
0.13991345 0.099124528 0.30127659
0.14062744 0.099194527 0.30148935
0.14134231 0.09926454 0.30170214
0.14190786 0.09922953 0.30159575
0.14232217 0.099089518 0.3011702
0.14263377 0.098879516 0.30053192
0.14304414 0.098739505 0.30010638
0.15795241 0.09698943 0.29478723
0.15832505 0.096849427 0.29436171
0.15863849 0.09667442 0.2938298
0.15889212 0.096464403 0.29319149
0.15902741 0.096184395 0.29234043
0.15944965 0.096079387 0.29202127
0.16010383 0.09611439 0.29212767
0.16110955 0.096359402 0.29287234
0.085045777 0.10565601 0.31914893
0.085525602 0.1054447 0.31851065
0.086060375 0.10530382 0.3180851
0.086622417 0.10519816 0.31776595
0.087183155 0.1050925 0.3174468
0.087772027 0.10502207 0.31723404
0.08838968 0.10498685 0.31712765
0.08906664 0.10502207 0.31723404
0.089804202 0.10512773 0.31755319
0.09051276 0.10519816 0.31776595
0.091191672 0.10523339 0.31787235
0.091778807 0.10516295 0.31765959
0.092334121 0.10505729 0.31734043
0.092919298 0.10498685 0.31712765
0.093535006 0.10495164 0.31702128
0.094181873 0.10495164 0.31702128
0.094828747 0.10495164 0.31702128
0.095443577 0.10491642 0.31691489
0.096057981 0.1048812 0.31680852
0.096639462 0.10481076 0.31659573
0.097154714 0.10466988 0.31617022
0.097635314 0.1044938 0.3156383
0.098179989 0.10438814 0.31531915
0.098790042 0.10435291 0.31521276
0.099399671 0.1043177 0.31510639
0.099975079 0.10424726 0.3148936
0.10048164 0.10410639 0.31446809
0.10098646 0.10396551 0.31404254
0.1015584 0.10389508 0.31382978
0.10219876 0.10389508 0.31382978
0.10280427 0.10385986 0.31372342
0.1034444 0.10385986 0.31372342
0.10401395 0.10378941 0.31351063
0.10461815 0.1037542 0.31340426
0.10522191 0.10371898 0.31329787
0.10582525 0.10368377 0.3131915
0.10631964 0.10354289 0.31276596
0.10681232 0.10340202 0.31234044
0.10730325 0.10326114 0.31191489
0.10779244 0.10312027 0.31148937
0.1082799 0.10297939 0.31106383
0.10880286 0.10287373 0.31074467
0.109362 0.1028033 0.31053191
0.10995794 0.10276807 0.31042552
0.11051556 0.10269764 0.31021276
0.11107231 0.1026272 0.31
0.11162819 0.10255677 0.30978724
0.11218318 0.10248633 0.30957446
0.11281487 0.10248633 0.30957446
0.11344654 0.10248633 0.30957446
0.11407822 0.10248633 0.30957446
0.11467048 0.10245111 0.30946809
0.1152623 0.10241589 0.3093617
0.11581384 0.10234545 0.30914894
0.11632443 0.1022398 0.30882978
0.11687402 0.10216936 0.30861703
0.11734171 0.10202848 0.30819148
0.11780769 0.10188761 0.30776596
0.11831286 0.10178196 0.30744681
0.11885788 0.10171152 0.30723405
0.11948478 0.10171152 0.30723405
0.12015327 0.10174673 0.30734041
0.12078039 0.10174673 0.30734041
0.12132346 0.1016763 0.30712765
0.12178119 0.10153542 0.30670214
0.12232208 0.10146498 0.30648935
0.12290478 0.10142977 0.30638298
0.12352995 0.10142977 0.30638298
0.12419821 0.10146498 0.30648935
0.12473695 0.10139455 0.30627659
0.12523127 0.10128889 0.30595744
0.12576804 0.10121845 0.30574468
0.12647985 0.10128889 0.30595744
0.12728094 0.10142977 0.30638298
0.12803933 0.10153542 0.30670214
0.12857589 0.10146498 0.30648935
0.12888736 0.10121845 0.30574468
0.1291507 0.1009367 0.30489361
0.12954643 0.10076062 0.3043617
0.13007648 0.10069018 0.30414894
0.13060567 0.10061974 0.30393618
0.13104209 0.10047887 0.30351064
0.13129221 0.10019711 0.30265957
0.13158523 0.099950589 0.3019149
0.13210811 0.099880151 0.30170214
0.13286412 0.099985801 0.30202127
0.13357443 0.10005625 0.30223405
0.13423835 0.10009146 0.30234042
0.13476036 0.10002102 0.30212766
0.13532917 0.099985801 0.30202127
0.13604121 0.10005625 0.30223405
0.13675411 0.10012668 0.30244681
0.13746788 0.10019711 0.30265957
0.13803691 0.10016189 0.30255318
0.13850801 0.10005625 0.30223405
0.13887987 0.099880151 0.30170214
0.13934791 0.099774495 0.30138299
0.13991345 0.099739268 0.30127659
0.14057784 0.099774495 0.30138299
0.14124262 0.099809706 0.30148935
0.1417577 0.099739268 0.30127659
0.14212108 0.099563181 0.30074468
0.14253277 0.099422298 0.30031914
0.14294274 0.09928143 0.29989362
0.14340189 0.099175774 0.29957446
0.1438086 0.099034905 0.29914895
0.14411086 0.098823585 0.29851064
0.14446208 0.098647498 0.29797873
0.14475934 0.098436177 0.29734042
0.145106 0.09826009 0.29680851
0.14550273 0.098119214 0.29638299
0.14605504 0.098083995 0.2962766
0.1467649 0.098154433 0.29648936
0.14763427 0.09833052 0.29702127
0.14829344 0.098365746 0.29712766
0.14873977 0.09826009 0.29680851
0.14902422 0.098048776 0.2961702
0.14941357 0.097907901 0.29574469
0.15007098 0.097943112 0.29585105
0.15099974 0.098154433 0.29648936
0.15193111 0.098365746 0.29712766
0.15264662 0.098436177 0.29734042
0.15314366 0.098365746 0.29712766
0.15352975 0.098224863 0.29670212
0.15380357 0.098013557 0.29606384
0.15418574 0.097872682 0.29563829
0.15467758 0.097802244 0.29542553
0.15522447 0.097767025 0.29531914
0.15582706 0.097767025 0.29531914
0.15642965 0.097767025 0.29531914
0.15697567 0.097731814 0.29521278
0.15746447 0.097661369 0.29499999
0.15795241 0.097590931 0.29478723
0.15832505 0.097450063 0.29436171
0.15863849 0.097273968 0.2938298
0.15889212 0.097062655 0.29319149
0.15920103 0.09688656 0.29265958
0.15962392 0.096780904 0.29234043
0.16033703 0.096851341 0.29255319
0.16122659 0.097027428 0.2930851
0.16205958 0.097168311 0.29351065
0.16277638 0.097238749 0.2937234
0.16742493 0.096463934 0.29138297
0.16783546 0.096358277 0.29106382
0.16824469 0.096252628 0.29074469
0.16859083 0.096111745 0.29031914
0.16899723 0.096006088 0.28999999
0.17075738 0.095336936 0.28797871
0.17153488 0.095442593 0.28829786
0.17244072 0.09561868 0.28882977
0.085611291 0.10620091 0.31882977
0.086089157 0.1059883 0.3181915
0.086593419 0.10581113 0.31765959
0.087095506 0.10563394 0.31712765
0.087683722 0.10556307 0.31691489
0.088330381 0.10556307 0.31691489
0.089006908 0.10559851 0.31702128
0.089744031 0.10570481 0.31734043
0.090452157 0.10577568 0.31755319
0.091130637 0.10581113 0.31765959
0.091717333 0.10574025 0.3174468
0.092303164 0.10566938 0.31723404
0.092888132 0.10559851 0.31702128
0.093535006 0.10559851 0.31702128
0.094213478 0.10563394 0.31712765
0.09489239 0.10566938 0.31723404
0.095571734 0.10570481 0.31734043
0.096186996 0.10566938 0.31723404
0.096769363 0.10559851 0.31702128
0.097252786 0.10542133 0.31648937
0.097734034 0.10524415 0.31595746
0.098213114 0.10506698 0.31542554
0.098756708 0.10496067 0.31510639
0.099298991 0.10485436 0.31478724
0.099839978 0.10474805 0.31446809
0.10034566 0.1046063 0.31404254
0.10084963 0.10446456 0.31361702
0.1014207 0.10439369 0.31340426
0.10206019 0.10439369 0.31340426
0.10269968 0.10439369 0.31340426
0.10330409 0.10435826 0.31329787
0.10387278 0.10428739 0.31308511
0.1044761 0.10425194 0.31297871
0.10511472 0.10425194 0.31297871
0.10575335 0.10425194 0.31297871
0.10631964 0.10418107 0.31276596
0.10688508 0.1041102 0.3125532
0.10733984 0.10393303 0.31202129
0.10782925 0.10379128 0.31159574
0.10824287 0.10357867 0.31095746
0.10876562 0.10347237 0.31063831
0.10928707 0.10336605 0.31031916
0.10992026 0.10336605 0.31031916
0.11051556 0.10333062 0.31021276
0.11107231 0.10325975 0.31
0.11158985 0.10315344 0.30968085
0.11214464 0.10308257 0.30946809
0.11269857 0.1030117 0.30925533
0.11329061 0.10297626 0.30914894
0.1138038 0.10286995 0.30882978
0.11435512 0.10279909 0.30861703
0.11494521 0.10276365 0.30851063
0.11553486 0.10272822 0.30840427
0.11608401 0.10265733 0.30819148
0.11663229 0.10258647 0.30797872
0.11713919 0.10248016 0.30765957
0.11760408 0.10233842 0.30723405
0.11810816 0.10223211 0.3069149
0.11873441 0.10223211 0.3069149
0.11948478 0.10233842 0.30723405
0.12019486 0.10240929 0.30744681
0.12078039 0.10237385 0.30734041
0.12123941 0.10223211 0.3069149
0.12169669 0.10209037 0.30648935
0.12219471 0.10198406 0.30617023
0.12277676 0.10194863 0.30606383
0.12344417 0.10198406 0.30617023
0.12402578 0.10194863 0.30606383
0.12456365 0.10187776 0.30585107
0.1250571 0.10177144 0.30553192
0.12568052 0.10177144 0.30553192
0.12634791 0.10180688 0.30563828
0.12705997 0.10187776 0.30585107
0.12768404 0.10187776 0.30585107
0.12826349 0.10184231 0.30574468
0.12866312 0.10166514 0.30521277
0.12906058 0.10148796 0.30468085
0.12950115 0.10134621 0.30425531
0.13003097 0.10127535 0.30404255
0.13046852 0.10113361 0.30361703
0.13085838 0.10095643 0.30308512
0.13110763 0.10067295 0.30223405
0.13144612 0.10046033 0.30159575
0.13196836 0.10038946 0.30138299
0.13267693 0.10046033 0.30159575
0.13338634 0.10053119 0.30180851
0.13409664 0.10060206 0.30202127
0.13466546 0.10056663 0.3019149
0.13528152 0.10056663 0.3019149
0.13599333 0.1006375 0.30212766
0.13675411 0.10074381 0.30244681
0.13741955 0.10077924 0.30255318
0.13793984 0.10070837 0.30234042
0.13845925 0.1006375 0.30212766
0.13887987 0.10049576 0.30170214
0.13929871 0.10035402 0.30127659
0.13981466 0.10028315 0.30106384
0.14042896 0.10028315 0.30106384
0.14099343 0.10024771 0.30095744
0.14150742 0.10017684 0.30074468
0.14186971 0.099999659 0.30021277
0.14228033 0.099857911 0.29978722
0.14268921 0.099716172 0.29936171
0.14319819 0.099645302 0.29914895
0.14365518 0.099538997 0.29882979
0.14411086 0.099432692 0.29851064
0.14446208 0.09925551 0.29797873
0.14486292 0.099113762 0.29755318
0.14515802 0.098901153 0.29691491
0.14555496 0.098759405 0.29648936
0.14605504 0.098688535 0.2962766
0.1467649 0.098759405 0.29648936
0.1475814 0.098901153 0.29691491
0.14824033 0.098936588 0.29702127
0.14868645 0.098830275 0.29670212
0.14902422 0.0986531 0.2961702
0.1494673 0.098546788 0.29585105
0.15017892 0.098617665 0.29606384
0.15105394 0.098794848 0.29659575
0.15193111 0.098972023 0.29712766
0.15259199 0.099007457 0.29723403
0.15308882 0.098936588 0.29702127
0.1534747 0.098794848 0.29659575
0.15380357 0.098617665 0.29606384
0.15418574 0.098475918 0.29563829
0.15467758 0.098405048 0.29542553
0.15522447 0.098369613 0.29531914
0.15577093 0.098334186 0.29521278
0.15637331 0.098334186 0.29521278
0.15691911 0.098298743 0.29510638
0.15740769 0.098227873 0.29489362
0.1578384 0.098121569 0.29457447
0.15821059 0.097979814 0.29414892
0.15858105 0.097838081 0.2937234
0.15889212 0.097660899 0.29319149
0.15925889 0.097519152 0.29276595
0.15968202 0.097412854 0.29244682
0.16033703 0.097448282 0.29255319
0.16110955 0.097554594 0.29287234
0.16188335 0.097660899 0.29319149
0.16259952 0.097731769 0.29340425
0.16313903 0.097696342 0.29329789
0.16367811 0.097660899 0.29319149
0.16421674 0.097625464 0.2930851
0.16475496 0.097590029 0.29297873
0.16623582 0.09705849 0.29138297
0.16683038 0.09705849 0.29138297
0.16730268 0.09698762 0.29117021
0.16771276 0.096881315 0.29085106
0.16806 0.096739575 0.29042554
0.16840549 0.096597828 0.28999999
0.16881125 0.096491516 0.28968084
0.16934012 0.096456088 0.28957447
0.16986856 0.096420646 0.28946808
0.17014597 0.096243471 0.28893617
0.1704841 0.096101731 0.28851065
0.17094663 0.096030854 0.28829786
0.1716615 0.096101731 0.28851065
0.17244072 0.096208028 0.28882977
0.17315754 0.096278906 0.28904256
0.17361942 0.096208028 0.28882977
0.085696988 0.10695843 0.31914893
0.086089157 0.10663756 0.3181915
0.086535417 0.10638799 0.3174468
0.087037072 0.10620973 0.31691489
0.0876543 0.10617407 0.31680852
0.088300735 0.10617407 0.31680852
0.089006908 0.10624538 0.31702128
0.089744031 0.10635234 0.31734043
0.090421855 0.10638799 0.3174468
0.091069594 0.10638799 0.3174468
0.091655858 0.10631669 0.31723404
0.092241265 0.10624538 0.31702128
0.092856959 0.10620973 0.31691489
0.093535006 0.10624538 0.31702128
0.094245084 0.10631669 0.31723404
0.094956033 0.10638799 0.3174468
0.095667854 0.1064593 0.31765959
0.096316025 0.1064593 0.31765959
0.096899249 0.10638799 0.3174468
0.097448915 0.10628103 0.31712765
0.097898573 0.10606711 0.31648937
0.098279364 0.10578189 0.3156383
0.098723359 0.10556798 0.315
0.099164754 0.10535406 0.31436169
0.099704869 0.1052471 0.31404254
0.1002097 0.10510448 0.31361702
0.100747 0.10499753 0.31329787
0.10135185 0.10496188 0.3131915
0.10199091 0.10496188 0.3131915
0.10266482 0.10499753 0.31329787
0.10326902 0.10496188 0.3131915
0.10383748 0.10489057 0.31297871
0.10444059 0.10485492 0.31287235
0.10511472 0.10489057 0.31297871
0.1057893 0.10492622 0.31308511
0.1064643 0.10496188 0.3131915
0.10706697 0.10492622 0.31308511
0.10752283 0.10474796 0.3125532
0.10797651 0.1045697 0.31202129
0.10835396 0.10432012 0.31127658
0.10876562 0.10410621 0.31063831
0.10932453 0.1040349 0.31042552
0.10999563 0.10407056 0.31053191
0.11062926 0.10407056 0.31053191
0.11118666 0.10399925 0.31031916
0.11170485 0.10389229 0.31
0.11218318 0.10374968 0.30957446
0.11269857 0.10364272 0.30925533
0.11321264 0.10353576 0.30893618
0.1136862 0.10339315 0.30851063
0.11419744 0.10328619 0.30819148
0.11478667 0.10325054 0.30808511
0.1154153 0.10325054 0.30808511
0.1159638 0.10317924 0.30787235
0.11651143 0.10310793 0.30765957
0.11697718 0.10296532 0.30723405
0.11744119 0.10282271 0.3068085
0.11798535 0.1027514 0.30659574
0.11865211 0.10278706 0.30670214
0.11948478 0.10296532 0.30723405
0.12027804 0.10310793 0.30765957
0.12090581 0.10310793 0.30765957
0.12123941 0.10285836 0.3069149
0.12156998 0.10260879 0.30617023
0.12202487 0.10246618 0.30574468
0.12264873 0.10246618 0.30574468
0.12331549 0.10250183 0.30585107
0.12393957 0.10250183 0.30585107
0.12447698 0.10243052 0.30563828
0.12501355 0.10235922 0.30542552
0.12563676 0.10235922 0.30542552
0.12625997 0.10235922 0.30542552
0.12692738 0.10239488 0.30553192
0.12746198 0.10232357 0.30531916
0.12804034 0.10228792 0.30521277
0.12852858 0.10218096 0.30489361
0.12906058 0.10210966 0.30468085
0.12950115 0.10196704 0.30425531
0.12998548 0.10186008 0.30393618
0.1304228 0.10171747 0.30351064
0.13076651 0.10150355 0.30287233
0.13110763 0.10128964 0.30223405
0.13144612 0.10107572 0.30159575
0.13192178 0.10096876 0.30127659
0.13253652 0.10096876 0.30127659
0.13319829 0.10100441 0.30138299
0.13386047 0.10104007 0.30148935
0.13452311 0.10107572 0.30159575
0.13518618 0.10111137 0.30170214
0.13584967 0.10114703 0.30180851
0.13656171 0.10121833 0.30202127
0.13717796 0.10121833 0.30202127
0.13769716 0.10114703 0.30180851
0.13821548 0.10107572 0.30159575
0.13868397 0.10096876 0.30127659
0.13910197 0.10082615 0.30085108
0.13961703 0.10075484 0.30063829
0.14018086 0.10071919 0.30053192
0.14074424 0.10068354 0.30042553
0.14120708 0.10057658 0.30010638
0.14161836 0.10043398 0.29968086
0.14202787 0.10029136 0.29925531
0.14248638 0.1001844 0.29893616
0.14299449 0.10011309 0.2987234
0.1435529 0.10007744 0.29861704
0.14405949 0.10000613 0.29840425
0.14456522 0.099934831 0.29819149
0.14496651 0.09979222 0.29776597
0.14531404 0.09961395 0.29723403
0.1456594 0.099435687 0.29670212
0.14615993 0.099364385 0.29648936
0.1467649 0.099364385 0.29648936
0.14742276 0.099400043 0.29659575
0.14808105 0.099435687 0.29670212
0.14863315 0.099400043 0.29659575
0.14907776 0.099293083 0.2962766
0.14962855 0.099257424 0.2961702
0.15034081 0.099328734 0.29638299
0.15116228 0.099471346 0.29680851
0.1519855 0.09961395 0.29723403
0.15259199 0.09961395 0.29723403
0.15297917 0.099471346 0.29680851
0.15336461 0.099328734 0.29638299
0.1537483 0.099186122 0.29595745
0.15424123 0.09911482 0.29574469
0.15473329 0.099043511 0.29553193
0.15522447 0.098972201 0.29531914
0.15571479 0.098900899 0.29510638
0.15626059 0.098865241 0.29499999
0.1567494 0.098793939 0.29478723
0.15723734 0.098722637 0.29457447
0.15772441 0.098651335 0.29436171
0.15809615 0.098508716 0.29393616
0.15852362 0.098401755 0.29361701
0.15889212 0.098259151 0.29319149
0.15925889 0.098116532 0.29276595
0.15968202 0.098009579 0.29244682
0.16027874 0.098009579 0.29244682
0.1609925 0.098080888 0.29265958
0.16164839 0.098116532 0.29276595
0.16224578 0.098116532 0.29276595
0.162784 0.098080888 0.29265958
0.16332176 0.09804523 0.29255319
0.1639187 0.09804523 0.29255319
0.16451564 0.09804523 0.29255319
0.16499251 0.097973928 0.29234043
0.16534799 0.097831309 0.29191488
0.16564126 0.097653046 0.29138297
0.16611443 0.097581744 0.29117021
0.16664764 0.097546086 0.29106382
0.16711929 0.097474784 0.29085106
0.16740605 0.097296521 0.29031914
0.16769063 0.097118258 0.28978723
0.16803484 0.096975654 0.28936172
0.16856328 0.096939996 0.28925532
0.16915348 0.096939996 0.28925532
0.1697437 0.096939996 0.28925532
0.17020863 0.096868694 0.28904256
0.17067267 0.096797377 0.28882977
0.1710728 0.096690431 0.28851065
0.17172478 0.096726075 0.28861701
0.17237721 0.096761733 0.28872341
0.17303006 0.096797377 0.28882977
0.17349152 0.096726075 0.28861701
0.17375961 0.096547812 0.2880851
0.17389676 0.096298248 0.28734043
0.17396627 0.096013024 0.28648937
0.17422678 0.095834762 0.28595746
0.1797267 0.095656499 0.28542554
0.18004027 0.09551388 0.285
0.18021728 0.095299959 0.28436169
0.18052696 0.095157355 0.28393617
0.18110633 0.095157355 0.28393617
0.085611291 0.10750204 0.31882977
0.085974023 0.10714334 0.31776595
0.086419418 0.10689225 0.31702128
0.086978637 0.10678464 0.31670213
0.087624863 0.10678464 0.31670213
0.088330381 0.10685638 0.31691489
0.08906664 0.10696398 0.31723404
0.089774109 0.10703573 0.3174468
0.090452157 0.1070716 0.31755319
0.091069594 0.10703573 0.3174468
0.091655858 0.10696398 0.31723404
0.092210308 0.10685638 0.31691489
0.09279462 0.10678464 0.31670213
0.093472235 0.10682052 0.31680852
0.094213478 0.10692811 0.31712765
0.094987854 0.1070716 0.31755319
0.095731929 0.10717921 0.31787235
0.096412785 0.10721508 0.31797871
0.097029142 0.10717921 0.31787235
0.09757968 0.1070716 0.31755319
0.097997293 0.10682052 0.31680852
0.098345608 0.10649768 0.31585106
0.098656684 0.10613898 0.31478724
0.099030524 0.10585202 0.31393617
0.099535994 0.10570854 0.31351063
0.10007373 0.10560094 0.3131915
0.10067858 0.10556506 0.31308511
0.10135185 0.10560094 0.3131915
0.10199091 0.10560094 0.3131915
0.10266482 0.1056368 0.31329787
0.10323394 0.10556506 0.31308511
0.10387278 0.10556506 0.31308511
0.1044761 0.10552919 0.31297871
0.10515045 0.10556506 0.31308511
0.10586119 0.1056368 0.31329787
0.10657278 0.10570854 0.31351063
0.10717612 0.10567267 0.31340426
0.10766921 0.10552919 0.31297871
0.10805014 0.1052781 0.31223404
0.10839099 0.10499115 0.31138298
0.10880286 0.10477592 0.31074467
0.109362 0.10470419 0.31053191
0.11003332 0.10474006 0.31063831
0.11070506 0.10477592 0.31074467
0.11126289 0.10470419 0.31053191
0.11178152 0.10459658 0.31021276
0.1122603 0.1044531 0.30978724
0.11273733 0.10430962 0.3093617
0.11317365 0.10413027 0.30882978
0.11360779 0.10395092 0.30829787
0.11415803 0.10387918 0.30808511
0.11474703 0.10384331 0.30797872
0.11537544 0.10384331 0.30797872
0.1159638 0.10380744 0.30787235
0.11647114 0.10369983 0.3075532
0.11693667 0.10355635 0.30712765
0.11740047 0.10341287 0.30670214
0.1179444 0.10334112 0.30648935
0.11861095 0.103377 0.30659574
0.11948478 0.10359222 0.30723405
0.12036122 0.10380744 0.30787235
0.12090581 0.10373569 0.30765957
0.12123941 0.10348461 0.3069149
0.12152773 0.10319765 0.30606383
0.1218975 0.10298243 0.30542552
0.12256338 0.10301831 0.30553192
0.12327259 0.10309004 0.30574468
0.12393957 0.10312591 0.30585107
0.12452032 0.10309004 0.30574468
0.12501355 0.10298243 0.30542552
0.12559301 0.10294656 0.30531916
0.12621599 0.10294656 0.30531916
0.12679479 0.10291069 0.30521277
0.12732875 0.10283896 0.30500001
0.12786183 0.10276721 0.30478725
0.12843889 0.10273135 0.30468085
0.12901552 0.10269547 0.30457446
0.12950115 0.10258786 0.30425531
0.12998548 0.10248026 0.30393618
0.1304228 0.10233677 0.30351064
0.13081245 0.10215742 0.30297872
0.13119993 0.10197808 0.30244681
0.13158523 0.10179873 0.3019149
0.13196836 0.10161938 0.30138299
0.13248971 0.10154763 0.3011702
0.13310425 0.10154763 0.3011702
0.13376601 0.1015835 0.30127659
0.13442822 0.10161938 0.30138299
0.13504317 0.10161938 0.30138299
0.13570601 0.10165524 0.30148935
0.1363693 0.10169112 0.30159575
0.13693637 0.10165524 0.30148935
0.13750303 0.10161938 0.30138299
0.13802047 0.10154763 0.3011702
0.1384881 0.10144003 0.30085108
0.13890521 0.10129654 0.30042553
0.13937001 0.10118894 0.30010638
0.13988313 0.1011172 0.29989362
0.1404452 0.10108133 0.29978722
0.1409568 0.10100958 0.29957446
0.14146753 0.10093785 0.29936171
0.1419269 0.10083024 0.29904255
0.14243567 0.1007585 0.29882979
0.14294358 0.10068677 0.29861704
0.1435529 0.10068677 0.29861704
0.14416222 0.10068677 0.29861704
0.14466837 0.10061502 0.29840425
0.14507009 0.10047154 0.29797873
0.14541806 0.10029219 0.29744682
0.14581609 0.10014871 0.29702127
0.14621238 0.10000523 0.29659575
0.14671226 0.099933498 0.29638299
0.14726414 0.099897623 0.2962766
0.14786868 0.099897623 0.2962766
0.14852653 0.099933498 0.29638299
0.1491313 0.099933498 0.29638299
0.1497898 0.099969357 0.29648936
0.15055665 0.10007697 0.29680851
0.15132482 0.10018458 0.29712766
0.1520399 0.10025632 0.29734042
0.15259199 0.10022045 0.29723403
0.15297917 0.10007697 0.29680851
0.15336461 0.099933498 0.29638299
0.15380357 0.099825889 0.29606384
0.1542967 0.09975414 0.29585105
0.15484469 0.099718273 0.29574469
0.1552804 0.099610664 0.29542553
0.15571479 0.099503055 0.29510638
0.15620425 0.099431314 0.29489362
0.15663627 0.099323705 0.29457447
0.15706699 0.099216096 0.29425532
0.1575534 0.099144354 0.29404256
0.15798172 0.099036746 0.2937234
0.15846619 0.098965004 0.29351065
0.15889212 0.098857395 0.29319149
0.15925889 0.098713912 0.29276595
0.15968202 0.098606311 0.29244682
0.16022043 0.098570436 0.29234043
0.16087547 0.098606311 0.29244682
0.1614722 0.098606311 0.29244682
0.16195101 0.098534562 0.29223403
0.16236977 0.098426953 0.29191488
0.16284664 0.098355211 0.29170212
0.16344185 0.098355211 0.29170212
0.16409689 0.098391086 0.29180852
0.16469231 0.098391086 0.29180852
0.16516723 0.098319352 0.29159576
0.16558079 0.098211743 0.2912766
0.16599305 0.098104127 0.29095745
0.16646492 0.098032393 0.29074469
0.16681367 0.097888909 0.29031914
0.16709934 0.097709559 0.28978723
0.16738284 0.097530209 0.28925532
0.16772594 0.097386725 0.28882977
0.16831529 0.097386725 0.28882977
0.16896684 0.0974226 0.28893617
0.16968127 0.097494334 0.28914893
0.17020863 0.097458474 0.28904256
0.17067267 0.097386725 0.28882977
0.17113587 0.097314991 0.28861701
0.1716615 0.097279124 0.28851065
0.1722502 0.097279124 0.28851065
0.17283888 0.097279124 0.28851065
0.17323573 0.097171515 0.2881915
0.17350295 0.096992165 0.28765959
0.17370361 0.09677694 0.28702128
0.17383708 0.096525855 0.28627661
0.17416194 0.096382372 0.28585106
0.17455012 0.096274763 0.28553191
0.17513274 0.096274763 0.28553191
0.17578082 0.096310638 0.2856383
0.17636366 0.096310638 0.2856383
0.17688058 0.096274763 0.28553191
0.17719874 0.096131288 0.28510639
0.17758147 0.096023679 0.28478724
0.17822912 0.096059538 0.2848936
0.17894399 0.096131288 0.28510639
0.17952573 0.096131288 0.28510639
0.17983866 0.095987804 0.28468084
0.18008244 0.095808454 0.28414893
0.18039168 0.095664978 0.28372341
0.18090275 0.095629103 0.28361702
0.18154955 0.095664978 0.28372341
0.085045777 0.10826086 0.31914893
0.085411333 0.10789999 0.3180851
0.085830115 0.10761129 0.31723404
0.086361423 0.10746695 0.31680852
0.086978637 0.10743086 0.31670213
0.0876543 0.10746695 0.31680852
0.08838968 0.1075752 0.31712765
0.089096509 0.10764738 0.31734043
0.089804202 0.10771956 0.31755319
0.090482466 0.10775565 0.31765959
0.091100112 0.10771956 0.31755319
0.091625124 0.1075752 0.31712765
0.092148401 0.10743086 0.31670213
0.092701107 0.1073226 0.31638297
0.093346678 0.1073226 0.31638297
0.09411867 0.10746695 0.31680852
0.094924212 0.10764738 0.31734043
0.095699884 0.10779173 0.31776595
0.096445046 0.10789999 0.3180851
0.097061612 0.1078639 0.31797871
0.097612374 0.10775565 0.31765959
0.098063104 0.10753912 0.31702128
0.098345608 0.10714217 0.31585106
0.098623335 0.10674521 0.31468084
0.09896341 0.10642043 0.31372342
0.099434681 0.10624 0.3131915
0.10003974 0.10620391 0.31308511
0.10067858 0.10620391 0.31308511
0.10135185 0.10624 0.3131915
0.10451162 0.10620391 0.31308511
0.11478667 0.10450782 0.30808511
0.11537544 0.10447173 0.30797872
0.1159638 0.10443565 0.30787235
0.11647114 0.10432739 0.3075532
0.11693667 0.10418303 0.30712765
0.12128144 0.10414695 0.30702129
0.12148549 0.10378607 0.30595744
0.12185504 0.10356956 0.30531916
0.1225207 0.10360564 0.30542552
0.12331549 0.10374999 0.30585107
0.12402578 0.10382216 0.30606383
0.12460697 0.10378607 0.30595744
0.1250571 0.10364173 0.30553192
0.12559301 0.10356956 0.30531916
0.12612803 0.10349738 0.30510637
0.12675059 0.10349738 0.30510637
0.12728433 0.1034252 0.30489361
0.1278172 0.10335303 0.30468085
0.1283492 0.10328086 0.3044681
0.12897046 0.10328086 0.3044681
0.12950115 0.10320868 0.30425531
0.12993999 0.10306434 0.30382979
0.1304228 0.10295608 0.30351064
0.1309043 0.10284781 0.30319148
0.13138451 0.10273955 0.30287233
0.13177069 0.10255912 0.30234042
0.13215469 0.10237868 0.30180851
0.13258332 0.10223434 0.30138299
0.13315126 0.10219825 0.30127659
0.13376601 0.10219825 0.30127659
0.13442822 0.10223434 0.30138299
0.13504317 0.10223434 0.30138299
0.13561025 0.10219825 0.30127659
0.13622499 0.10219825 0.30127659
0.13683973 0.10219825 0.30127659
0.13740593 0.10216216 0.3011702
0.13792296 0.10208999 0.30095744
0.13834119 0.10194565 0.30053192
0.13870847 0.10176521 0.30000001
0.13912299 0.10162086 0.29957446
0.13963501 0.10154869 0.29936171
0.14024585 0.10154869 0.29936171
0.14090674 0.10158477 0.29946807
0.14146753 0.10154869 0.29936171
0.14202787 0.1015126 0.29925531
0.1425878 0.10147651 0.29914895
0.14314727 0.10144042 0.29904255
0.14375746 0.10144042 0.29904255
0.14426494 0.10136826 0.29882979
0.14471996 0.10125999 0.29851064
0.14512187 0.10111564 0.29808509
0.14552209 0.1009713 0.29765958
0.14592053 0.10082694 0.29723403
0.14631726 0.1006826 0.29680851
0.14671226 0.10053825 0.29638299
0.14715838 0.10043 0.29606384
0.14776249 0.10043 0.29606384
0.14847322 0.10050216 0.2962766
0.14918481 0.10057434 0.29648936
0.14995103 0.1006826 0.29680851
0.15066458 0.10075477 0.29702127
0.15143318 0.10086303 0.29734042
0.1520943 0.10089912 0.29744682
0.15259199 0.10082694 0.29723403
0.15297917 0.1006826 0.29680851
0.15336461 0.10053825 0.29638299
0.15380357 0.10043 0.29606384
0.15435219 0.10039391 0.29595745
0.15490037 0.10035782 0.29585105
0.15533632 0.10024956 0.29553193
0.15577093 0.10014129 0.29521278
0.15620425 0.10003304 0.29489362
0.15657969 0.099888682 0.29446808
0.15701018 0.099780418 0.29414892
0.1574394 0.099672168 0.2938298
0.1579245 0.099599987 0.29361701
0.15840875 0.099527813 0.29340425
0.15889212 0.099455647 0.29319149
0.15931676 0.099347383 0.29287234
0.15979819 0.099275209 0.29265958
0.16027874 0.099203035 0.29244682
0.16081694 0.099166945 0.29234043
0.16129598 0.099094778 0.29212767
0.16165623 0.098950423 0.29170212
0.16201475 0.098806083 0.2912766
0.16243091 0.098697819 0.29095745
0.16284579 0.098589554 0.2906383
0.16325934 0.09848129 0.29031914
0.16361158 0.09833695 0.28989363
0.16444412 0.09848129 0.29031914
0.16515745 0.098553464 0.2905319
0.16593236 0.098661728 0.29085106
0.16634309 0.098553464 0.2905319
0.16663028 0.098373033 0.28999999
0.16691531 0.098192595 0.28946808
0.16719815 0.098012164 0.28893617
0.16760239 0.0979039 0.28861701
0.1681913 0.0979039 0.28861701
0.16884243 0.09793999 0.28872341
0.16955641 0.098012164 0.28893617
0.17014597 0.098012164 0.28893617
0.17060982 0.09793999 0.28872341
0.1710728 0.097867824 0.28851065
0.17153488 0.097795643 0.28829786
0.17205964 0.09775956 0.2881915
0.17258395 0.097723469 0.2880851
0.17297994 0.097615205 0.28776595
0.17324628 0.097434774 0.28723404
0.17351046 0.097254336 0.28670213
0.17370787 0.097037815 0.28606382
0.17409712 0.09692955 0.28574467
0.17455012 0.096857376 0.28553191
0.17513274 0.096857376 0.28553191
0.17571536 0.096857376 0.28553191
0.17629796 0.096857376 0.28553191
0.17674878 0.09678521 0.28531915
0.17713261 0.096676946 0.285
0.17751513 0.096568681 0.28468084
0.17802948 0.096532606 0.28457448
0.1786769 0.096568681 0.28468084
0.1791908 0.096532606 0.28457448
0.17956986 0.096424341 0.28425533
0.17981276 0.09624391 0.28372341
0.1802564 0.096171722 0.28351063
0.18083489 0.096171722 0.28351063
0.18148147 0.09620782 0.28361702
0.084733941 0.10851272 0.31797871
0.085211374 0.1082949 0.31734043
0.085743763 0.10814968 0.31691489
0.086390413 0.10814968 0.31691489
0.087066293 0.10818599 0.31702128
0.087742589 0.10822229 0.31712765
0.088419333 0.1082586 0.31723404
0.089096509 0.1082949 0.31734043
0.089774109 0.1083312 0.3174468
0.090421855 0.1083312 0.3174468
0.091039076 0.1082949 0.31734043
0.091532923 0.10811339 0.31680852
0.092055537 0.10796817 0.31638297
0.092576429 0.10782295 0.31595746
0.093221128 0.10782295 0.31595746
0.093992248 0.10796817 0.31638297
0.09489239 0.1082586 0.31723404
0.1246503 0.10444668 0.30606383
0.12510063 0.10430145 0.30563828
0.12554924 0.10415625 0.30521277
0.13099617 0.10353907 0.30340424
0.13147682 0.10343017 0.30308512
0.13190979 0.10328495 0.30265957
0.13224785 0.10306712 0.30202127
0.13267693 0.10292191 0.30159575
0.13319829 0.1028493 0.30138299
0.13386047 0.1028856 0.30148935
0.13447565 0.1028856 0.30148935
0.13504317 0.1028493 0.30138299
0.13561025 0.102813 0.30127659
0.13622499 0.102813 0.30127659
0.13683973 0.102813 0.30127659
0.13740593 0.10277668 0.3011702
0.13792296 0.10270409 0.30095744
0.13829221 0.10252256 0.30042553
0.13865928 0.10234104 0.29989362
0.13897477 0.10212322 0.29925531
0.13953578 0.10208692 0.29914895
0.14019601 0.10212322 0.29925531
0.1409568 0.10223213 0.29957446
0.14161836 0.10226844 0.29968086
0.14228033 0.10230473 0.29978722
0.14284132 0.10226844 0.29968086
0.14340189 0.10223213 0.29957446
0.14396201 0.10219582 0.29946807
0.14436764 0.10205061 0.29904255
0.14471996 0.10186909 0.29851064
0.14507009 0.10168757 0.29797873
0.14557409 0.10161497 0.29776597
0.14607722 0.10154235 0.29755318
0.1464746 0.10139714 0.29712766
0.14681756 0.10121562 0.29659575
0.14715838 0.1010341 0.29606384
0.14770938 0.10099779 0.29595745
0.14847322 0.10110671 0.2962766
0.14923835 0.10121562 0.29659575
0.14995103 0.10128823 0.29680851
0.15071855 0.10139714 0.29712766
0.15143318 0.10146975 0.29734042
0.1520943 0.10150605 0.29744682
0.15259199 0.10143344 0.29723403
0.15292433 0.10125192 0.29670212
0.15330955 0.10110671 0.2962766
0.15380357 0.1010341 0.29606384
0.15435219 0.10099779 0.29595745
0.15495609 0.10099779 0.29595745
0.15544814 0.10092519 0.29574469
0.15582706 0.10077997 0.29531914
0.15620425 0.10063475 0.29489362
0.15657969 0.10048953 0.29446808
0.15695341 0.10034432 0.29404256
0.15738238 0.10023541 0.2937234
0.15786728 0.1001628 0.29351065
0.15840875 0.1001265 0.29340425
0.15894978 0.1000902 0.29329789
0.1594325 0.10001758 0.2930851
0.15991436 0.099944979 0.29287234
0.16027874 0.099799767 0.29244682
0.15999764 0.099255197 0.29085106
0.15994498 0.098855853 0.28968084
0.15994652 0.098492816 0.28861701
0.16083129 0.098674335 0.28914893
0.16171823 0.098855853 0.28968084
0.16230932 0.098855853 0.28968084
0.16266112 0.098710641 0.28925532
0.16289108 0.098492816 0.28861701
0.16408257 0.098855853 0.28968084
0.16503651 0.099073678 0.29031914
0.16593236 0.099255197 0.29085106
0.16640401 0.099182591 0.2906383
0.16675255 0.099037379 0.29021278
0.16697666 0.098819554 0.28957447
0.16701347 0.098492816 0.28861701
0.16716994 0.098238692 0.28787234
0.16744737 0.098057173 0.28734043
0.16828252 0.098202385 0.28776595
0.16918184 0.098383904 0.28829786
0.17008333 0.098565422 0.28882977
0.17060982 0.098529123 0.28872341
0.1710097 0.09842021 0.28840426
0.1714083 0.098311298 0.2880851
0.17193261 0.098274991 0.28797871
0.17239276 0.098202385 0.28776595
0.17285204 0.098129779 0.28755319
0.17311797 0.097948261 0.28702128
0.1733817 0.097766742 0.28648937
0.17370787 0.097621515 0.28606382
0.17416194 0.097548909 0.28585106
0.17468017 0.097512603 0.28574467
0.17526323 0.097512603 0.28574467
0.17578082 0.097476304 0.2856383
0.17623229 0.097403698 0.28542554
0.17661698 0.097294785 0.28510639
0.17700037 0.097185872 0.28478724
0.17738247 0.09707696 0.28446808
0.17782982 0.097004354 0.28425533
0.17834304 0.096968047 0.28414893
0.17878887 0.096895441 0.28393617
0.17923383 0.096822836 0.28372341
0.1796779 0.096750222 0.28351063
0.18018878 0.096713923 0.28340426
0.18083489 0.096750222 0.28351063
0.18154955 0.096822836 0.28372341
0.084507152 0.10886938 0.31712765
0.085154235 0.10886938 0.31712765
0.085801326 0.10886938 0.31712765
0.086506419 0.10894243 0.31734043
0.087241597 0.10905199 0.31765959
0.087889768 0.10905199 0.31765959
0.088478632 0.10897894 0.3174468
0.08906664 0.1089059 0.31723404
0.089653775 0.10883287 0.31702128
0.09027034 0.10879634 0.31691489
0.090855964 0.1087233 0.31670213
0.09137924 0.10857722 0.31627661
0.091900773 0.10843113 0.31585106
0.092482917 0.10835809 0.3156383
0.093126968 0.10835809 0.3156383
0.13509083 0.10350078 0.30148935
0.13561025 0.10342774 0.30127659
0.13622499 0.10342774 0.30127659
0.14431629 0.10262427 0.29893616
0.14456522 0.10236863 0.29819149
0.14496651 0.10222255 0.29776597
0.14552209 0.10218602 0.29765958
0.14607722 0.1021495 0.29755318
0.14652702 0.10203993 0.29723403
0.14687023 0.10185733 0.29670212
0.14726414 0.10171125 0.2962766
0.14781557 0.10167473 0.2961702
0.14847322 0.10171125 0.2962766
0.14923835 0.10182081 0.29659575
0.14995103 0.10189386 0.29680851
0.15066458 0.1019669 0.29702127
0.15132482 0.10200342 0.29712766
0.1520399 0.10207646 0.29734042
0.1537483 0.10160168 0.29595745
0.15435219 0.10160168 0.29595745
0.15495609 0.10160168 0.29595745
0.15906218 0.098533913 0.28702128
0.16023956 0.098899126 0.2880851
0.1613619 0.099227816 0.28904256
0.16201128 0.099264331 0.28914893
0.16605373 0.099921711 0.29106382
0.16658674 0.099885195 0.29095745
0.16699705 0.099775635 0.2906383
0.16728337 0.099593028 0.29010639
0.16695192 0.099045217 0.28851065
0.16661395 0.098497391 0.28691489
0.16664144 0.098168708 0.28595746
0.1676604 0.098424353 0.28670213
0.16905698 0.098899126 0.2880851
0.17180558 0.098789558 0.28776595
0.17226531 0.09871652 0.28755319
0.17278808 0.098679997 0.2874468
0.17311797 0.098533913 0.28702128
0.1733817 0.098351307 0.28648937
0.17377248 0.098241746 0.28617021
0.17429158 0.098205224 0.28606382
0.17487527 0.098205224 0.28606382
0.17526323 0.098095655 0.28574467
0.17506067 0.097657405 0.28446808
0.17419605 0.096853942 0.28212765
0.17660703 0.096598297 0.28138298
0.17865491 0.097401761 0.28372341
0.17909941 0.097328715 0.28351063
0.17961049 0.0972922 0.28340426
0.1802564 0.097328715 0.28351063
0.18097062 0.097401761 0.28372341
0.084507152 0.10951646 0.31712765
0.085211374 0.10958995 0.31734043
0.08591646 0.10966343 0.31755319
0.086680412 0.10981037 0.31797871
0.087387681 0.10988386 0.3181915
0.08803694 0.10988386 0.3181915
0.088537939 0.10970017 0.31765959
0.089006908 0.10947973 0.31702128
0.089503348 0.10929605 0.31648937
0.09005823 0.10918583 0.31617022
0.090642326 0.10911235 0.31595746
0.09122555 0.10903887 0.31574467
0.091807909 0.1089654 0.31553191
0.092420578 0.10892867 0.31542554
0.14491472 0.10279339 0.29765958
0.14736988 0.10238927 0.29648936
0.14786868 0.10231579 0.2962766
0.14852653 0.10235254 0.29638299
0.14923835 0.10242601 0.29659575
0.14989728 0.10246274 0.29670212
0.15055665 0.10249949 0.29680851
0.16718043 0.10047889 0.29095745
0.1674674 0.10029519 0.29042554
0.1668288 0.099560425 0.28829786
0.1661815 0.098825663 0.28617021
0.17507038 0.098899141 0.28638297
0.1750675 0.098568507 0.28542554
0.17394772 0.097613305 0.28265956
0.08529707 0.11034834 0.31765959
0.086031586 0.1104592 0.31797871
0.086796418 0.11060702 0.31840426
0.087504543 0.11068093 0.31861702
0.088095807 0.11060702 0.31840426
0.088567585 0.11038529 0.31776595
0.088977031 0.11008964 0.31691489
0.089413092 0.10983097 0.31617022
0.089937016 0.10968314 0.31574467
0.090520248 0.10960923 0.31553191
0.091133349 0.10957228 0.31542554
0.085325636 0.11103368 0.31776595
0.086031586 0.11110802 0.31797871
0.086767413 0.11121954 0.31829786
0.08747533 0.1112939 0.31851065
0.088125244 0.1112939 0.31851065
0.088626891 0.11110802 0.31797871
0.08903677 0.11081064 0.31712765
0.089473262 0.11055044 0.31638297
0.085268505 0.1116073 0.31755319
0.085945249 0.11164469 0.31765959
0.086680412 0.11175685 0.31797871
0.087446108 0.11190641 0.31840426
0.088095807 0.11190641 0.31840426
0.088656545 0.11179424 0.3180851
0.089126371 0.1115699 0.3174468
0.085182808 0.11214243 0.31723404
0.085858896 0.11218004 0.31734043
0.086622417 0.11233046 0.31776595
0.087387681 0.11248089 0.3181915
0.088125244 0.11259372 0.31851065
0.08877515 0.11259372 0.31851065
0.085858896 0.11282756 0.31734043
0.086593419 0.11294103 0.31765959
0.087387681 0.11313015 0.3181915
0.088125244 0.11324362 0.31851065
0.08591646 0.11355116 0.31755319
0.086622417 0.11362724 0.31776595
0.087329239 0.11370333 0.31797871
0.08803694 0.11377941 0.3181915
0.085945249 0.11423738 0.31765959
0.086593419 0.11423738 0.31765959
0.087212376 0.11419912 0.31755319
0.087830894 0.11416086 0.3174468
0.08591646 0.11484708 0.31755319
0.086506419 0.11477013 0.31734043
0.087066293 0.1146547 0.31702128
0.0876543 0.11457776 0.31680852
0.085830115 0.11537896 0.31723404
0.086390413 0.11526288 0.31691489
0.086920209 0.11510812 0.31648937
0.087477691 0.11499204 0.31617022
0.085068546 0.11587063 0.31680852
0.085714988 0.11587063 0.31680852
0.086303413 0.11579281 0.31659573
0.086832553 0.11563718 0.31617022
0.087301083 0.11540372 0.31553191
0.08486858 0.11624318 0.31606382
0.085542284 0.11628231 0.31617022
0.086216427 0.11632144 0.31627661
0.086774126 0.11620406 0.31595746
0.087242216 0.1159693 0.31531915
0.084668629 0.1166127 0.31531915
0.085398376 0.11673073 0.3156383
0.086129427 0.11684877 0.31595746
0.086774126 0.11684877 0.31595746
0.087301083 0.11669139 0.31553191
0.087855965 0.11657336 0.31521276
0.08446867 0.11697918 0.31457448
0.085225672 0.11713742 0.315
0.086013421 0.11733522 0.31553191
0.086744905 0.1174539 0.31585106
0.087389387 0.1174539 0.31585106
0.088004217 0.11741433 0.31574467
0.084382974 0.11750173 0.31425533
0.085110545 0.11762106 0.31457448
0.085897423 0.11781995 0.31510639
0.086715683 0.1180586 0.31574467
0.087448254 0.11817794 0.31606382
0.088122822 0.11821771 0.31617022
0.084382974 0.11814296 0.31425533
0.085081764 0.11822294 0.31446809
0.085868418 0.11842291 0.315
0.086657256 0.11862288 0.31553191
0.087418824 0.11878286 0.31595746
0.088122822 0.11886285 0.31617022
