# .PCD v0.7 - Point Cloud Data file format
VERSION 0.7
FIELDS x y z
SIZE 4 4 4
TYPE F F F
COUNT 1 1 1
WIDTH 325
HEIGHT 1
VIEWPOINT 0 0 0 1 0 0 0
POINTS 325
DATA ascii
-0.12366708 0.063146673 0.315
-0.12298279 0.06312535 0.3148936
-0.1253594 0.064328007 0.31765959
-0.12429356 0.064112566 0.31659573
-0.12348137 0.0640264 0.31617022
-0.1227949 0.064004853 0.31606382
-0.20272265 0.14533153 0.31904256
-0.20200427 0.14528306 0.31893617
-0.20108485 0.14508922 0.31851065
-0.2002341 0.14494385 0.3181915
-0.19951811 0.14489539 0.3180851
-0.19893558 0.14494385 0.3181915
-0.1986178 0.14518614 0.31872341
-0.20218188 0.14559311 0.3181915
-0.20139785 0.14549574 0.31797871
-0.20041321 0.14525236 0.3174468
-0.19943075 0.14500898 0.31691489
-0.19851719 0.14481427 0.31648937
-0.19800442 0.14491162 0.31670213
-0.19775598 0.14520369 0.31734043
-0.19770314 0.14564177 0.31829786
-0.19744882 0.14593384 0.31893617
-0.19692932 0.14603119 0.31914893
-0.19614726 0.14593384 0.31893617
-0.19523565 0.14573914 0.31851065
-0.19452076 0.14569046 0.31840426
-0.19380628 0.14564177 0.31829786
-0.19309226 0.14559311 0.3181915
-0.192443 0.14559311 0.3181915
-0.19192198 0.14569046 0.31840426
-0.19146401 0.14583649 0.31872341
-0.19106841 0.14603119 0.31914893
-0.064060576 0.14598252 0.31904256
-0.063388437 0.14593384 0.31893617
-0.062695809 0.14583649 0.31872341
-0.062066168 0.14588515 0.31882977
-0.20164111 0.14585121 0.31734043
-0.20079145 0.14570452 0.31702128
-0.19974159 0.14541116 0.31638297
-0.19869435 0.14511779 0.31574467
-0.19778317 0.14492223 0.31531915
-0.19727279 0.14502001 0.31553191
-0.19702673 0.14531338 0.31617022
-0.19697627 0.14575341 0.31712765
-0.19685608 0.14614457 0.31797871
-0.19640419 0.14629126 0.31829786
-0.19555843 0.14614457 0.31797871
-0.19471399 0.1459979 0.31765959
-0.19380584 0.14580232 0.31723404
-0.19309375 0.14575341 0.31712765
-0.19238211 0.14570452 0.31702128
-0.19173524 0.14570452 0.31702128
-0.19115248 0.14575341 0.31712765
-0.19063322 0.14585121 0.31734043
-0.19024046 0.14604679 0.31776595
-0.18978249 0.14619347 0.3180851
-0.18925995 0.14629126 0.31829786
-0.18861046 0.14629126 0.31829786
-0.18783535 0.14619347 0.3180851
-0.18718632 0.14619347 0.3180851
-0.18672444 0.14634015 0.31840426
-0.064560525 0.14629126 0.31829786
-0.063825607 0.14609568 0.31787235
-0.063134715 0.1459979 0.31765959
-0.062444687 0.1459001 0.3174468
-0.061776239 0.14585121 0.31734043
-0.061190195 0.1459979 0.31765959
-0.060724497 0.14643794 0.31861702
-0.20082994 0.1459094 0.31606382
-0.19998288 0.14576206 0.31574467
-0.19893564 0.1454674 0.31510639
-0.19795796 0.14522184 0.31457448
-0.1971159 0.14507452 0.31425533
-0.19660768 0.14517273 0.31446809
-0.19636379 0.1454674 0.31510639
-0.19631551 0.1459094 0.31606382
-0.19613163 0.14625318 0.31680852
-0.19574775 0.14644963 0.31723404
-0.19503501 0.1464005 0.31712765
-0.1941271 0.14620407 0.31670213
-0.1932859 0.14605673 0.31638297
-0.19257557 0.14600763 0.31627661
-0.19186565 0.14595851 0.31617022
-0.19122052 0.14595851 0.31617022
-0.19057539 0.14595851 0.31617022
-0.18993025 0.14595851 0.31617022
-0.18941249 0.14605673 0.31638297
-0.18895733 0.14620407 0.31670213
-0.18843763 0.14630228 0.31691489
-0.18779097 0.14630228 0.31691489
-0.18701868 0.14620407 0.31670213
-0.18630984 0.14615496 0.31659573
-0.18578863 0.14625318 0.31680852
-0.18557738 0.14659695 0.31755319
-0.18542504 0.14698985 0.31840426
-0.1852075 0.14733362 0.31914893
-0.06231913 0.14625318 0.31680852
-0.061651982 0.14620407 0.31670213
-0.061026257 0.14625318 0.31680852
-0.19981599 0.14581439 0.31446809
-0.19903958 0.14571574 0.31425533
-0.19806254 0.1454691 0.31372342
-0.1971546 0.14527178 0.31329787
-0.19638188 0.14517312 0.31308511
-0.19587605 0.14527178 0.31329787
-0.19556825 0.14551842 0.31382978
-0.1954565 0.14591305 0.31468084
-0.19527544 0.14625835 0.31542554
-0.19489439 0.14645566 0.31585106
-0.19424991 0.14645566 0.31585106
-0.19347501 0.146357 0.3156383
-0.19276597 0.14630768 0.31553191
-0.19205737 0.14625835 0.31542554
-0.19141376 0.14625835 0.31542554
-0.19070579 0.14620902 0.31531915
-0.18993415 0.14611037 0.31510639
-0.18922727 0.14606103 0.315
-0.18864822 0.14611037 0.31510639
-0.1881322 0.14620902 0.31531915
-0.18767858 0.146357 0.3156383
-0.18709755 0.14640632 0.31574467
-0.18632764 0.14630768 0.31553191
-0.1855586 0.14620902 0.31531915
-0.18497761 0.14625835 0.31542554
-0.18464483 0.146505 0.31595746
-0.18449576 0.14689963 0.31680852
-0.18421972 0.14719558 0.3174468
-0.18387957 0.14744222 0.31797871
-0.18353727 0.14768887 0.31851065
-0.18325385 0.14798483 0.31914893
-0.19859925 0.14556424 0.3125532
-0.19789411 0.14551468 0.3124468
-0.19712225 0.1454156 0.31223404
-0.19635126 0.14531651 0.31202129
-0.19571459 0.14531651 0.31202129
-0.19514443 0.14536606 0.31212765
-0.19477272 0.14556424 0.3125532
-0.19446535 0.14581196 0.31308511
-0.19422168 0.14610924 0.31372342
-0.19384411 0.14630741 0.31414893
-0.19326852 0.14635697 0.31425533
-0.1926273 0.14635697 0.31425533
-0.19198607 0.14635697 0.31425533
-0.1914096 0.1464065 0.31436169
-0.19070362 0.14635697 0.31425533
-0.18999805 0.14630741 0.31414893
-0.18916465 0.14615877 0.31382978
-0.18833257 0.14601015 0.31351063
-0.18769287 0.14601015 0.31351063
-0.18730706 0.14620833 0.31393617
-0.1869195 0.1464065 0.31436169
-0.18646717 0.14655514 0.31468084
-0.18569943 0.14645605 0.31446809
-0.18486996 0.14630741 0.31414893
-0.18416655 0.14625786 0.31404254
-0.18371227 0.1464065 0.31436169
-0.18350451 0.14675333 0.31510639
-0.18323195 0.14705059 0.31574467
-0.1829568 0.14734787 0.31638297
-0.18261774 0.1475956 0.31691489
-0.1823376 0.14789286 0.31755319
-0.1821157 0.14823969 0.31829786
-0.1818908 0.14858651 0.31904256
-0.1973149 0.1452565 0.31053191
-0.19668128 0.1452565 0.31053191
-0.19611482 0.14530627 0.31063831
-0.19554791 0.14535603 0.31074467
-0.19498058 0.1454058 0.31085107
-0.19447932 0.14550531 0.31106383
-0.19397718 0.14560483 0.31127658
-0.19354028 0.14575413 0.31159574
-0.19310205 0.14590341 0.31191489
-0.19266254 0.1460527 0.31223404
-0.19209085 0.14610247 0.31234044
-0.19151874 0.14615223 0.3124468
-0.19094621 0.146202 0.3125532
-0.19037321 0.14625175 0.31265956
-0.1897998 0.14630151 0.31276596
-0.18903294 0.146202 0.3125532
-0.18820281 0.1460527 0.31223404
-0.18743789 0.14595318 0.31202129
-0.18673754 0.14590341 0.31191489
-0.18635498 0.14610247 0.31234044
-0.18609717 0.14640103 0.31297871
-0.18577375 0.14664985 0.31351063
-0.18513404 0.14664985 0.31351063
-0.18430653 0.14650057 0.3131915
-0.18354268 0.14640103 0.31297871
-0.18296625 0.1464508 0.31308511
-0.18257521 0.14664985 0.31351063
-0.18230592 0.14694843 0.31414893
-0.18203403 0.147247 0.31478724
-0.18169822 0.14749582 0.31531915
-0.18136024 0.14774463 0.31585106
-0.18108097 0.1480432 0.31648937
-0.18092039 0.1484413 0.31734043
-0.18087719 0.14893892 0.31840426
-0.038008071 0.14918773 0.31893617
-0.037357293 0.14918773 0.31893617
-0.19603057 0.14494053 0.30851063
-0.19560321 0.14509046 0.30882978
-0.19510737 0.14519042 0.30904254
-0.19467762 0.14534035 0.3093617
-0.19424656 0.1454903 0.30968085
-0.19374768 0.14559026 0.30989361
-0.19324796 0.14569022 0.3101064
-0.19268127 0.1457402 0.31021276
-0.19211416 0.14579017 0.31031916
-0.19154659 0.14584015 0.31042552
-0.19097862 0.14589013 0.31053191
-0.19034497 0.14589013 0.31053191
-0.18971135 0.14589013 0.31053191
-0.18920727 0.14599009 0.31074467
-0.18863776 0.14604008 0.31085107
-0.18806784 0.14609006 0.31095746
-0.1873692 0.14604008 0.31085107
-0.18660711 0.14594012 0.31063831
-0.18590957 0.14589013 0.31053191
-0.18546636 0.14604008 0.31085107
-0.18527485 0.14638993 0.31159574
-0.18501729 0.1466898 0.31223404
-0.18456866 0.14683975 0.3125532
-0.1838057 0.1467398 0.31234044
-0.18298121 0.14658985 0.31202129
-0.18228237 0.14653987 0.31191489
-0.18183178 0.1466898 0.31223404
-0.18150336 0.14693971 0.31276596
-0.18117276 0.1471896 0.31329787
-0.1807787 0.14738953 0.31372342
-0.1803218 0.14753945 0.31404254
-0.17998536 0.14778936 0.31457448
-0.17988932 0.14823917 0.31553191
-0.1799707 0.14883894 0.31680852
-0.18004686 0.14943868 0.3180851
-0.19535461 0.14506806 0.30744681
-0.19479465 0.14511827 0.3075532
-0.19423425 0.14516845 0.30765957
-0.19387428 0.14536925 0.30808511
-0.19344583 0.14551984 0.30840427
-0.19301605 0.14567041 0.30872339
-0.19245242 0.14572062 0.30882978
-0.19182226 0.14572062 0.30882978
-0.19125797 0.14577082 0.30893618
-0.1906276 0.14577082 0.30893618
-0.1899318 0.14572062 0.30882978
-0.18917122 0.14562023 0.30861703
-0.1885415 0.14562023 0.30861703
-0.18804131 0.14572062 0.30882978
-0.18760484 0.14587121 0.30914894
-0.18729573 0.14612219 0.30968085
-0.18672797 0.14617239 0.30978724
-0.18609586 0.14617239 0.30978724
-0.18533635 0.14607199 0.30957446
-0.18483163 0.14617239 0.30978724
-0.18457904 0.14647356 0.31042552
-0.18438691 0.14682494 0.31117022
-0.18400326 0.14702573 0.31159574
-0.18336746 0.14702573 0.31159574
-0.1825445 0.14687513 0.31127658
-0.181785 0.14677474 0.31106383
-0.18127419 0.14687513 0.31127658
-0.180886 0.14707594 0.31170213
-0.18049605 0.14727671 0.31212765
-0.18004307 0.14742731 0.3124468
-0.1795277 0.14752769 0.31265956
-0.17913321 0.14772849 0.31308511
-0.17904021 0.14818025 0.31404254
-0.17912462 0.14878261 0.31531915
-0.17920381 0.14938496 0.31659573
-0.17915782 0.14988694 0.31765959
-0.17904767 0.15033869 0.31861702
-0.19508423 0.14549375 0.30702129
-0.19432299 0.14539291 0.3068085
-0.1936298 0.14534251 0.30670214
-0.19320482 0.14549375 0.30702129
-0.19277853 0.14564498 0.30734041
-0.19235095 0.14579622 0.30765957
-0.19178948 0.14584664 0.30776596
-0.1911615 0.14584664 0.30776596
-0.1905335 0.14584664 0.30776596
-0.18983987 0.14579622 0.30765957
-0.18908125 0.1456954 0.30744681
-0.18832351 0.14559458 0.30723405
-0.18763161 0.14554416 0.30712765
-0.18713447 0.14564498 0.30734041
-0.1868947 0.14594747 0.30797872
-0.186781 0.14635077 0.30882978
-0.18647146 0.14660284 0.3093617
-0.18590415 0.14665326 0.30946809
-0.1851453 0.14655244 0.30925533
-0.18451428 0.14655244 0.30925533
-0.18426277 0.14685491 0.30989361
-0.18407172 0.14720781 0.31063831
-0.18375199 0.14745988 0.31117022
-0.18311705 0.14745988 0.31117022
-0.18229495 0.14730863 0.31085107
-0.1815985 0.14725822 0.31074467
-0.18102638 0.14730863 0.31085107
-0.18057732 0.14745988 0.31117022
-0.18018845 0.14766152 0.31159574
-0.17967525 0.14776236 0.3118085
-0.17910011 0.14781277 0.31191489
-0.17870714 0.14801443 0.31234044
-0.17861566 0.14846815 0.31329787
-0.17870159 0.14907312 0.31457448
-0.17872208 0.14962766 0.31574467
-0.17867783 0.15013181 0.31680852
-0.17856942 0.15058552 0.31776595
-0.17851667 0.15108965 0.31882977
-0.19412084 0.14586705 0.30648935
-0.19336115 0.1457658 0.30627659
-0.19287008 0.14586705 0.30648935
-0.19244489 0.14601895 0.3068085
-0.19195189 0.14612022 0.30702129
-0.19139171 0.14617084 0.30712765
-0.19076502 0.14617084 0.30712765
-0.19013834 0.14617084 0.30712765
-0.18944603 0.14612022 0.30702129
-0.1886887 0.14601895 0.3068085
-0.18786703 0.14586705 0.30648935
-0.18717667 0.14581643 0.30638298
-0.18674584 0.14596832 0.30670214
-0.18657191 0.14632273 0.30744681
-0.18658799 0.14682904 0.30851063
-0.18640736 0.14718346 0.30925533
