# .PCD v0.7 - Point Cloud Data file format
VERSION 0.7
FIELDS x y z
SIZE 4 4 4
TYPE F F F
COUNT 1 1 1
WIDTH 1341
HEIGHT 1
VIEWPOINT 0 0 0 1 0 0 0
POINTS 1341
DATA ascii
-0.13310246 -0.052301884 0.2293617
-0.13269597 -0.052326147 0.22946809
-0.13216645 -0.052301884 0.2293617
-0.13169844 -0.052301884 0.2293617
-0.13129131 -0.052326147 0.22946809
-0.13112634 -0.052447438 0.23
-0.1311405 -0.052641507 0.23085107
-0.13127162 -0.052884094 0.23191489
-0.1312184 -0.053053908 0.23265958
-0.13086322 -0.053102423 0.23287234
-0.13044763 -0.053126682 0.23297872
-0.13480952 -0.052314714 0.23148936
-0.13415197 -0.052242588 0.23117021
-0.13331117 -0.052098338 0.23053192
-0.13253427 -0.05197813 0.23
-0.1318817 -0.051906005 0.22968085
-0.13141304 -0.051906005 0.22968085
-0.13130829 -0.052050255 0.23031914
-0.13138224 -0.052266631 0.2312766
-0.13145226 -0.052483007 0.23223405
-0.1312784 -0.052603215 0.23276596
-0.130923 -0.052651297 0.23297872
-0.13623445 -0.052390333 0.23393618
-0.13513973 -0.052152086 0.23287234
-0.13392635 -0.051866192 0.23159574
-0.13284077 -0.051627945 0.23053192
-0.13206495 -0.051508825 0.23
-0.13165651 -0.051532649 0.23010638
-0.13149025 -0.051651768 0.2306383
-0.13150309 -0.051842369 0.23148936
-0.13145226 -0.052009139 0.23223405
-0.1312184 -0.05210444 0.23265958
-0.13086322 -0.052152086 0.23287234
-0.13635835 -0.051960211 0.23414893
-0.13526322 -0.051724136 0.23308511
-0.13398787 -0.051417239 0.23170213
-0.13290207 -0.05118116 0.2306383
-0.13218711 -0.051086731 0.23021276
-0.13189998 -0.051157553 0.23053192
-0.13173284 -0.051275592 0.23106383
-0.13162397 -0.051417239 0.23170213
-0.13139205 -0.051511668 0.23212767
-0.1310384 -0.051558882 0.23234043
-0.13056432 -0.051558882 0.23234043
-0.13627659 -0.051271923 0.23319149
-0.13555296 -0.051178362 0.23276596
-0.13452238 -0.050967846 0.23180851
-0.13349572 -0.050757334 0.23085107
-0.13271816 -0.050640378 0.23031914
-0.13224821 -0.050640378 0.23031914
-0.13208258 -0.050757334 0.23085107
-0.13191479 -0.050874285 0.23138298
-0.13168439 -0.050967846 0.23180851
-0.13133183 -0.051014628 0.23202127
-0.13085841 -0.051014628 0.23202127
-0.13466017 -0.050193597 0.23042554
-0.13406609 -0.050147247 0.23021276
-0.13341114 -0.050077725 0.22989361
-0.1327575 -0.050008208 0.22957447
-0.13241166 -0.050054554 0.22978723
-0.13224821 -0.050170422 0.23031914
-0.13220432 -0.050332636 0.23106383
-0.13203609 -0.0504485 0.23159574
-0.13174483 -0.050518021 0.23191489
-0.13127162 -0.050518021 0.23191489
-0.13073841 -0.05049485 0.23180851
-0.13304375 -0.049126554 0.22765957
-0.13282703 -0.049218379 0.2280851
-0.13254684 -0.049287248 0.22840425
-0.13232686 -0.049379073 0.22882979
-0.13228905 -0.049539771 0.22957447
-0.13230929 -0.04972342 0.23042554
-0.13226518 -0.049884111 0.23117021
-0.13203609 -0.049975939 0.23159574
-0.13168439 -0.050021853 0.23180851
-0.13127162 -0.050044809 0.23191489
-0.13085841 -0.050067764 0.23202127
-0.13223554 -0.048366413 0.22627659
-0.13214555 -0.048502848 0.2269149
-0.13211468 -0.048662022 0.22765957
-0.13220383 -0.048866678 0.22861703
-0.13235036 -0.04909407 0.22968085
-0.13237038 -0.049275983 0.23053192
-0.13226518 -0.049412418 0.23117021
-0.13191479 -0.049457897 0.23138298
-0.13150309 -0.049480636 0.23148936
-0.13115118 -0.049526118 0.23170213
-0.13223554 -0.0479047 0.22627659
-0.13208359 -0.048017312 0.2268085
-0.13217643 -0.048220012 0.22776596
-0.13232686 -0.048445236 0.22882979
-0.13247295 -0.048670456 0.22989361
-0.13237038 -0.048805591 0.23053192
-0.13208258 -0.048873156 0.23085107
-0.13161154 -0.048873156 0.23085107
-0.13120092 -0.048895679 0.23095745
-0.13091032 -0.048963245 0.2312766
-0.13267073 -0.047599129 0.22702128
-0.13245532 -0.04768835 0.22744681
-0.13242337 -0.047844484 0.22819149
-0.1324499 -0.048022926 0.22904256
-0.13247295 -0.048201364 0.22989361
-0.13224821 -0.048290584 0.23031914
-0.13177824 -0.048290584 0.23031914
-0.13118699 -0.048245978 0.23010638
-0.1307779 -0.048268281 0.23021276
-0.13036837 -0.048290584 0.23031914
-0.13316809 -0.047312602 0.22787234
-0.13288899 -0.047378868 0.22819149
-0.13260856 -0.04744513 0.22851063
-0.1324499 -0.047555573 0.22904256
-0.13228905 -0.047666013 0.22957447
-0.13194278 -0.047710188 0.22978723
-0.13147391 -0.047710188 0.22978723
-0.13094439 -0.0476881 0.22968085
-0.13053617 -0.047710188 0.22978723
-0.13360329 -0.047000736 0.22861703
-0.13313679 -0.047000736 0.22861703
-0.13267031 -0.047000736 0.22861703
-0.13226534 -0.047022607 0.22872341
-0.13198255 -0.047088221 0.22904256
-0.13169844 -0.047153831 0.2293617
-0.13135217 -0.047197573 0.22957447
-0.13106568 -0.047263186 0.22989361
-0.13065703 -0.047285058 0.23
-0.13360329 -0.046534251 0.22861703
-0.13313679 -0.046534251 0.22861703
-0.13260856 -0.046512593 0.22851063
-0.13208078 -0.046490941 0.22840425
-0.13173734 -0.046534251 0.22861703
-0.13157627 -0.04664252 0.22914894
-0.13159564 -0.046815749 0.23
-0.13161154 -0.046988983 0.23085107
-0.13138224 -0.047075599 0.2312766
-0.13375783 -0.045960579 0.2280851
-0.13347894 -0.046024889 0.22840425
-0.13307483 -0.046046324 0.22851063
-0.13248511 -0.046003453 0.22829787
-0.13195775 -0.045982018 0.22819149
-0.13167603 -0.046046324 0.22851063
-0.13169844 -0.046217822 0.2293617
-0.13189998 -0.046453629 0.23053192
-0.13221805 -0.046732306 0.23191489
-0.13210744 -0.04686093 0.2325532
-0.1346706 -0.045176882 0.22648937
-0.13439757 -0.04524054 0.2268085
-0.13418606 -0.045325421 0.22723404
-0.13397281 -0.045410298 0.22765957
-0.13369544 -0.045473959 0.22797872
-0.13341677 -0.045537621 0.22829787
-0.13301289 -0.04555884 0.22840425
-0.13248511 -0.045537621 0.22829787
-0.13195775 -0.045516402 0.22819149
-0.13173734 -0.045601279 0.22861703
-0.13175954 -0.045771036 0.22946809
-0.13214345 -0.046068113 0.23095745
-0.13246065 -0.046343971 0.23234043
-0.1324096 -0.04649251 0.23308511
-0.13863426 -0.044651732 0.22617021
-0.13817278 -0.044651732 0.22617021
-0.13771129 -0.044651732 0.22617021
-0.1347519 -0.044588722 0.22585106
-0.13448083 -0.044651732 0.22617021
-0.13427149 -0.044735741 0.22659574
-0.13412324 -0.044840753 0.22712766
-0.13397281 -0.044945769 0.22765957
-0.13375783 -0.045029778 0.2280851
-0.13354111 -0.045113791 0.22851063
-0.13313679 -0.045134794 0.22861703
-0.13260856 -0.045113791 0.22851063
-0.13201927 -0.045071784 0.22829787
-0.13173734 -0.045134794 0.22861703
-0.13175954 -0.045302816 0.22946809
-0.13202171 -0.045554847 0.23074467
-0.13221805 -0.045785878 0.23191489
-0.13870321 -0.044065524 0.22553192
-0.13830823 -0.044086311 0.2256383
-0.13797779 -0.044127882 0.22585106
-0.13764651 -0.044169452 0.22606383
-0.13724978 -0.044190239 0.22617021
-0.13495798 -0.044044737 0.22542553
-0.13449802 -0.044044737 0.22542553
-0.1341013 -0.044065524 0.22553192
-0.1339563 -0.044169452 0.22606383
-0.1339976 -0.044335738 0.2269149
-0.13397281 -0.044481236 0.22765957
-0.1338826 -0.044605952 0.22829787
-0.13372763 -0.04470988 0.22882979
-0.13332266 -0.044730663 0.22893617
-0.13279378 -0.04470988 0.22882979
-0.13214231 -0.044647522 0.22851063
-0.13167603 -0.044647522 0.22851063
-0.13145411 -0.044730663 0.22893617
-0.13147391 -0.044896949 0.22978723
-0.13149025 -0.045063235 0.2306383
-0.13785267 -0.043337941 0.22414893
-0.13772134 -0.043440785 0.22468086
-0.13771783 -0.043584764 0.22542553
-0.13751696 -0.043667037 0.22585106
-0.13705611 -0.043667037 0.22585106
-0.13646659 -0.043625902 0.2256383
-0.13573751 -0.043687608 0.22595745
-0.13521275 -0.043667037 0.22585106
-0.13456149 -0.043605335 0.22553192
-0.13403805 -0.043584764 0.22542553
-0.13383022 -0.043667037 0.22585106
-0.13380913 -0.04381102 0.22659574
-0.13384761 -0.043975569 0.22744681
-0.1338826 -0.044140115 0.22829787
-0.13378979 -0.044263527 0.22893617
-0.13344656 -0.044304665 0.22914894
-0.13291726 -0.044284098 0.22904256
-0.13220383 -0.044201825 0.22861703
-0.13155343 -0.044140115 0.22829787
-0.1310876 -0.044140115 0.22829787
-0.13080437 -0.044201825 0.22861703
-0.13045917 -0.044242959 0.22882979
-0.13706756 -0.042636357 0.22287235
-0.13719967 -0.042819522 0.22382979
-0.13732788 -0.043002684 0.22478724
-0.13719308 -0.04310444 0.22531915
-0.13666877 -0.043084089 0.22521277
-0.13608055 -0.043043386 0.22499999
-0.13581382 -0.04310444 0.22531915
-0.13592921 -0.043287605 0.22627659
-0.13565858 -0.043348659 0.22659574
-0.1350058 -0.043287605 0.22627659
-0.13435432 -0.043226551 0.22595745
-0.13389327 -0.043226551 0.22595745
-0.13374631 -0.043328308 0.22648937
-0.13372239 -0.043470766 0.22723404
-0.13375783 -0.04363358 0.2280851
-0.13372763 -0.043776039 0.22882979
-0.13344656 -0.043837097 0.22914894
-0.13285552 -0.04379639 0.22893617
-0.13214231 -0.043714985 0.22851063
-0.13143082 -0.04363358 0.2280851
-0.13078217 -0.043572526 0.22776596
-0.13031743 -0.043572526 0.22776596
-0.12985268 -0.043572526 0.22776596
-0.13700213 -0.042161457 0.22276595
-0.13706926 -0.042322535 0.22361702
-0.1371979 -0.042503744 0.22457446
-0.13686921 -0.042544011 0.22478724
-0.13628142 -0.042503744 0.22457446
-0.13575885 -0.042483609 0.22446808
-0.13568558 -0.042604417 0.22510639
-0.13605703 -0.042866163 0.22648937
-0.13623178 -0.043067507 0.22755319
-0.13589442 -0.043107778 0.22776596
-0.13505013 -0.04298697 0.22712766
-0.13433453 -0.04290643 0.22670212
-0.13387196 -0.04290643 0.22670212
-0.13365979 -0.04298697 0.22712766
-0.13363306 -0.043127909 0.22787234
-0.13354111 -0.043248717 0.22851063
-0.13319875 -0.043288987 0.22872341
-0.13260856 -0.043248717 0.22851063
-0.13195775 -0.043188315 0.22819149
-0.13130823 -0.043127909 0.22787234
-0.13072109 -0.043087639 0.22765957
-0.13019569 -0.043067507 0.22755319
-0.1377849 -0.0418065 0.22329788
-0.13752553 -0.04186625 0.22361702
-0.13752572 -0.042005673 0.2243617
-0.13739286 -0.042105258 0.22489361
-0.13686921 -0.042085342 0.22478724
-0.13615231 -0.042005673 0.2243617
-0.13563016 -0.041985758 0.22425532
-0.13568558 -0.042145096 0.22510639
-0.13624875 -0.042463768 0.2268085
-0.13667761 -0.042742614 0.22829787
-0.13652913 -0.042842202 0.22882979
-0.1358092 -0.042762533 0.22840425
-0.13490187 -0.04262311 0.22765957
-0.13418606 -0.042543441 0.22723404
-0.13372239 -0.042543441 0.22723404
-0.13350828 -0.04262311 0.22765957
-0.13329242 -0.042702779 0.2280851
-0.13288899 -0.042722698 0.22819149
-0.13229989 -0.04268286 0.22797872
-0.13177319 -0.042662945 0.22787234
-0.13124692 -0.042643029 0.22776596
-0.13078217 -0.042643029 0.22776596
-0.13031743 -0.042643029 0.22776596
-0.13876954 -0.041646373 0.22489361
-0.1384415 -0.041685771 0.22510639
-0.1381778 -0.041744873 0.22542553
-0.13778283 -0.041764572 0.22553192
-0.13706353 -0.041685771 0.22510639
-0.13628142 -0.041587271 0.22457446
-0.13582319 -0.041587271 0.22457446
-0.13587794 -0.041744873 0.22542553
-0.13637656 -0.042040378 0.22702128
-0.13680498 -0.04231618 0.22851063
-0.13678302 -0.042454083 0.22925532
-0.13618873 -0.042414684 0.22904256
-0.13534315 -0.04229648 0.22840425
-0.13450018 -0.042178281 0.22776596
-0.13391021 -0.042138878 0.22755319
-0.13344589 -0.042138878 0.22755319
-0.13304375 -0.042158578 0.22765957
-0.13257921 -0.042158578 0.22765957
-0.13205294 -0.042138878 0.22755319
-0.13165015 -0.042158578 0.22765957
-0.13124692 -0.042178281 0.22776596
-0.13084327 -0.04219798 0.22787234
-0.13037829 -0.04219798 0.22787234
-0.13929428 -0.041206967 0.22499999
-0.1391634 -0.041304383 0.22553192
-0.13896491 -0.041382316 0.22595745
-0.13863426 -0.041421283 0.22617021
-0.13817278 -0.041421283 0.22617021
-0.13745219 -0.04134335 0.22574468
-0.13666877 -0.041245934 0.22521277
-0.13614489 -0.04122645 0.22510639
-0.13600619 -0.041323867 0.2256383
-0.13618484 -0.041518696 0.22670212
-0.13642286 -0.041733012 0.22787234
-0.13640219 -0.041869398 0.22861703
-0.13606222 -0.041908361 0.22882979
-0.13540618 -0.041849911 0.22851063
-0.13468863 -0.041771978 0.2280851
-0.13403542 -0.041713532 0.22776596
-0.13350828 -0.041694045 0.22765957
-0.13304375 -0.041694045 0.22765957
-0.13251726 -0.041674562 0.22755319
-0.13199121 -0.041655079 0.22744681
-0.13158864 -0.041674562 0.22755319
-0.13118562 -0.041694045 0.22765957
-0.13078217 -0.041713532 0.22776596
-0.13031743 -0.041713532 0.22776596
-0.13902654 -0.040535934 0.22382979
-0.13889912 -0.040632267 0.2243617
-0.13883518 -0.040747862 0.22499999
-0.13870321 -0.040844195 0.22553192
-0.13850385 -0.04092126 0.22595745
-0.13817278 -0.04095979 0.22617021
-0.13764651 -0.040940523 0.22606383
-0.13705611 -0.040901989 0.22585106
-0.13653094 -0.040882725 0.22574468
-0.13613443 -0.040901989 0.22585106
-0.13586532 -0.04095979 0.22617021
-0.13572226 -0.041056119 0.22670212
-0.135704 -0.041190982 0.22744681
-0.13555618 -0.041287314 0.22797872
-0.13521707 -0.041325845 0.22819149
-0.13462581 -0.041287314 0.22797872
-0.13403542 -0.041248783 0.22776596
-0.13350828 -0.041229513 0.22765957
-0.13304375 -0.041229513 0.22765957
-0.13257921 -0.041229513 0.22765957
-0.13211468 -0.041229513 0.22765957
-0.13165015 -0.041229513 0.22765957
-0.13112432 -0.041210249 0.22755319
-0.13059892 -0.041190982 0.22744681
-0.13001308 -0.041152447 0.22723404
-0.13934137 -0.039907776 0.22287235
-0.13901919 -0.039945874 0.22308511
-0.13869616 -0.039983973 0.22329788
-0.13837224 -0.040022071 0.22351064
-0.13817875 -0.040098265 0.22393617
-0.13798352 -0.040174462 0.2243617
-0.13791697 -0.040288754 0.22499999
-0.13778283 -0.040384002 0.22553192
-0.13758174 -0.040460199 0.22595745
-0.13724978 -0.040498298 0.22617021
-0.13678829 -0.040498298 0.22617021
-0.13619857 -0.040460199 0.22595745
-0.13554578 -0.040403053 0.2256383
-0.13514906 -0.040422101 0.22574468
-0.13494232 -0.040498298 0.22617021
-0.13492362 -0.040631641 0.2269149
-0.1347758 -0.040726885 0.22744681
-0.13443734 -0.040764984 0.22765957
-0.13397281 -0.040764984 0.22765957
-0.13350828 -0.040764984 0.22765957
-0.13310592 -0.040784035 0.22776596
-0.13264117 -0.040784035 0.22776596
-0.13223816 -0.040803082 0.22787234
-0.13171168 -0.040784035 0.22776596
-0.13112432 -0.040745933 0.22755319
-0.13053784 -0.040707838 0.22734043
-0.13007396 -0.040707838 0.22734043
-0.13946249 -0.039358851 0.22234042
-0.13907532 -0.039377686 0.22244681
-0.13868773 -0.039396517 0.22255319
-0.13836576 -0.03943418 0.22276595
-0.13791122 -0.03943418 0.22276595
-0.13752232 -0.039453015 0.22287235
-0.1371984 -0.039490677 0.22308511
-0.13713446 -0.039603669 0.22372341
-0.1371329 -0.039735492 0.22446808
-0.13725786 -0.039904978 0.22542553
-0.13731435 -0.040055636 0.22627659
-0.13698132 -0.040093299 0.22648937
-0.1363268 -0.040036805 0.22617021
-0.13548188 -0.039923813 0.22553192
-0.13483061 -0.039867315 0.22521277
-0.13449802 -0.039904978 0.22542553
-0.13448083 -0.040036805 0.22617021
-0.13439757 -0.040149793 0.2268085
-0.13418606 -0.040225122 0.22723404
-0.13372239 -0.040225122 0.22723404
-0.13325873 -0.040225122 0.22723404
-0.13291942 -0.040262789 0.22744681
-0.13257921 -0.040300451 0.22765957
-0.13223816 -0.040338114 0.22787234
-0.13177319 -0.040338114 0.22787234
-0.13124692 -0.040319283 0.22776596
-0.13066 -0.04028162 0.22755319
-0.13037829 -0.040338114 0.22787234
-0.13045917 -0.040507603 0.22882979
-0.13958144 -0.038812097 0.22180851
-0.13912885 -0.038812097 0.22180851
-0.13874276 -0.038830712 0.22191489
-0.13842255 -0.038867943 0.22212766
-0.13810146 -0.038905174 0.22234042
-0.13758191 -0.038886558 0.22223404
-0.13699718 -0.038849331 0.22202128
-0.13660957 -0.038867943 0.22212766
-0.13648237 -0.038961019 0.22265957
-0.13661297 -0.039128553 0.22361702
-0.13693398 -0.039351933 0.22489361
-0.13718523 -0.039556697 0.22606383
-0.13704567 -0.03964977 0.22659574
-0.13645506 -0.039612543 0.22638299
-0.13554578 -0.039482236 0.2256383
-0.13476692 -0.039389163 0.22510639
-0.13437107 -0.039407779 0.22521277
-0.13422781 -0.039500851 0.22574468
-0.13414542 -0.039612543 0.22638299
-0.13387196 -0.039668385 0.22670212
-0.13340937 -0.039668385 0.22670212
-0.13294679 -0.039668385 0.22670212
-0.13254638 -0.039687 0.2268085
-0.1323314 -0.039761458 0.22723404
-0.13217643 -0.039854534 0.22776596
-0.13189623 -0.03991038 0.2280851
-0.13149214 -0.039928995 0.22819149
-0.1310876 -0.03994761 0.22829787
-0.13086523 -0.040022068 0.22872341
-0.13100503 -0.040208217 0.22978723
-0.13162397 -0.040543288 0.23170213
-0.13241573 -0.040934201 0.23393618
-0.13265838 -0.041157581 0.23521277
-0.13283604 -0.041362341 0.23638298
-0.13300893 -0.041567106 0.23755319
-0.13311769 -0.041753255 0.23861702
-0.13904588 -0.038212322 0.22095744
-0.13859501 -0.038212322 0.22095744
-0.13834371 -0.038267516 0.2212766
-0.13809107 -0.038322713 0.22159575
-0.13783714 -0.038377903 0.22191489
-0.13731848 -0.038359504 0.22180851
-0.13666895 -0.03830431 0.22148935
-0.13615158 -0.038285915 0.22138298
-0.13609113 -0.038396303 0.22202128
-0.13628802 -0.03858028 0.22308511
-0.13667488 -0.038819451 0.22446808
-0.13699156 -0.039040226 0.22574468
-0.13698132 -0.039169014 0.22648937
-0.13645506 -0.039150614 0.22638299
-0.13560969 -0.039040226 0.22574468
-0.13483061 -0.038948238 0.22521277
-0.13437107 -0.038948238 0.22521277
-0.13416456 -0.039021831 0.2256383
-0.13401935 -0.03911382 0.22617021
-0.13368349 -0.039150614 0.22638299
-0.13315895 -0.039132215 0.22627659
-0.13257247 -0.03909542 0.22606383
-0.13217337 -0.03911382 0.22617021
-0.13202164 -0.039205808 0.22670212
-0.13211468 -0.039371386 0.22765957
-0.13208078 -0.039500173 0.22840425
-0.13192125 -0.039592162 0.22893617
-0.13157627 -0.039628956 0.22914894
-0.13135217 -0.03970255 0.22957447
-0.13136894 -0.039849732 0.23042554
-0.13174483 -0.040107302 0.23191489
-0.13217486 -0.040383272 0.23351064
-0.13241838 -0.040604044 0.23478724
-0.13259691 -0.04080642 0.23595744
-0.13277067 -0.041008797 0.23712766
-0.13293965 -0.041211173 0.23829788
-0.13286732 -0.041339956 0.23904255
-0.13851032 -0.037616022 0.22010638
-0.13819465 -0.037652384 0.22031915
-0.13794464 -0.037706926 0.2206383
-0.1377596 -0.037779648 0.22106382
-0.13750677 -0.03783419 0.22138298
-0.13692331 -0.037797831 0.22117022
-0.1362751 -0.037743285 0.22085106
-0.13588989 -0.037761468 0.22095744
-0.13583028 -0.037870552 0.22159575
-0.13609304 -0.038070541 0.22276595
-0.13648055 -0.038306888 0.22414893
-0.13673332 -0.03850688 0.22531915
-0.13665962 -0.038615964 0.22595745
-0.13626269 -0.038634144 0.22606383
-0.13554578 -0.038561422 0.2256383
-0.1348943 -0.03850688 0.22531915
-0.13437107 -0.038488697 0.22521277
-0.13403805 -0.03852506 0.22542553
-0.13383022 -0.038597781 0.22585106
-0.13343221 -0.038615964 0.22595745
-0.13290854 -0.038597781 0.22585106
-0.13232292 -0.038561422 0.2256383
-0.13192469 -0.038579602 0.22574468
-0.13189773 -0.038706869 0.22648937
-0.13211468 -0.038906854 0.22765957
-0.13232686 -0.039106846 0.22882979
-0.13228905 -0.039234109 0.22957447
-0.13200386 -0.039288651 0.22989361
-0.13165651 -0.039325014 0.23010638
-0.13149025 -0.039415918 0.2306383
-0.13156353 -0.039579544 0.23159574
-0.13175336 -0.039779533 0.23276596
-0.13205838 -0.040015884 0.23414893
-0.13223822 -0.040215872 0.23531915
-0.13247284 -0.04043404 0.23659575
-0.13258356 -0.040615849 0.23765957
-0.1326308 -0.040779475 0.23861702
-0.13817559 -0.037077084 0.21957447
-0.13786101 -0.037113011 0.21978724
-0.13767859 -0.037184868 0.22021277
-0.13749443 -0.037256721 0.2206383
-0.13711031 -0.037274685 0.22074468
-0.13652815 -0.037238754 0.22053191
-0.13594688 -0.037202828 0.22031915
-0.13562818 -0.037238754 0.22053191
-0.13569987 -0.037382465 0.22138298
-0.13596305 -0.037580065 0.22255319
-0.13628624 -0.037795633 0.22382979
-0.13641053 -0.037957303 0.22478724
-0.13633791 -0.038065087 0.22542553
-0.13594207 -0.03808305 0.22553192
-0.13535406 -0.038047124 0.22531915
-0.13476692 -0.038011197 0.22510639
-0.13424413 -0.03799323 0.22499999
-0.13384828 -0.038011197 0.22510639
-0.13351503 -0.038047124 0.22531915
-0.13318093 -0.03808305 0.22553192
-0.13272074 -0.03808305 0.22553192
-0.13226055 -0.03808305 0.22553192
-0.13192469 -0.038118977 0.22574468
-0.13189773 -0.038244724 0.22648937
-0.13211468 -0.038442325 0.22765957
-0.13238838 -0.038657889 0.22893617
-0.13247295 -0.038819563 0.22989361
-0.13218711 -0.038873453 0.23021276
-0.13183911 -0.038909383 0.23042554
-0.13149025 -0.038945306 0.2306383
-0.13144267 -0.039071053 0.23138298
-0.13151248 -0.039232727 0.23234043
-0.13175839 -0.039448291 0.23361702
-0.13199909 -0.039663855 0.23489362
-0.13217501 -0.039861456 0.23606382
-0.13228682 -0.040041093 0.23712766
-0.13227601 -0.040184803 0.23797873
-0.13810864 -0.036611304 0.21946809
-0.13779427 -0.036646795 0.21968085
-0.13761207 -0.03671778 0.22010638
-0.13742813 -0.036788769 0.22053191
-0.13691206 -0.036771022 0.22042553
-0.13626471 -0.03671778 0.22010638
-0.13574995 -0.036700036 0.22
-0.13549733 -0.036753275 0.22031915
-0.13563466 -0.036912996 0.2212766
-0.13589807 -0.037108209 0.22244681
-0.13609192 -0.037285674 0.22351064
-0.13602319 -0.037392154 0.22414893
-0.13582319 -0.03746314 0.22457446
-0.1354932 -0.037498634 0.22478724
-0.13497062 -0.037480887 0.22468086
-0.13444847 -0.03746314 0.22457446
-0.13392676 -0.037445392 0.22446808
-0.13346875 -0.037445392 0.22446808
-0.13307376 -0.03746314 0.22457446
-0.13280399 -0.037516382 0.22489361
-0.13253292 -0.03756962 0.22521277
-0.13219815 -0.037605114 0.22542553
-0.13192469 -0.037658352 0.22574468
-0.13189773 -0.03778258 0.22648937
-0.13205294 -0.037960045 0.22755319
-0.13226534 -0.038155258 0.22872341
-0.13235036 -0.03831498 0.22968085
-0.13218711 -0.038403712 0.23021276
-0.13189998 -0.03845695 0.23053192
-0.13161154 -0.038510192 0.23085107
-0.13150309 -0.038616672 0.23148936
-0.13145226 -0.038740899 0.23223405
-0.13157839 -0.038918365 0.23329787
-0.13175996 -0.039113577 0.23446809
-0.13193674 -0.03930879 0.23563829
-0.13199008 -0.039468512 0.23659575
-0.13817559 -0.036181014 0.21957447
-0.13792774 -0.036233604 0.21989362
-0.1377451 -0.036303721 0.22031915
-0.13749443 -0.036356311 0.2206383
-0.13697815 -0.03633878 0.22053191
-0.13633057 -0.036286194 0.22021277
-0.13574995 -0.036251131 0.22
-0.13556275 -0.036321249 0.22042553
-0.13569987 -0.036479015 0.22138298
-0.13583307 -0.036636781 0.22234042
-0.13589759 -0.03677702 0.22319148
-0.13576497 -0.036864668 0.22372341
-0.13543715 -0.036899727 0.22393617
-0.1349802 -0.036899727 0.22393617
-0.13452327 -0.036899727 0.22393617
-0.13406634 -0.036899727 0.22393617
-0.1336094 -0.036899727 0.22393617
-0.13308921 -0.036882196 0.22382979
-0.13269554 -0.036899727 0.22393617
-0.13236424 -0.036934786 0.22414893
-0.1321573 -0.037004903 0.22457446
-0.13194861 -0.03707502 0.22499999
-0.13180035 -0.037162669 0.22553192
-0.13171187 -0.037267845 0.22617021
-0.131806 -0.037425611 0.22712766
-0.13195775 -0.037600908 0.22819149
-0.13204385 -0.037758674 0.22914894
-0.13194278 -0.037863851 0.22978723
-0.13183911 -0.03796903 0.23042554
-0.13173284 -0.038074207 0.23106383
-0.13156353 -0.038161855 0.23159574
-0.13145226 -0.038267031 0.23223405
-0.13139839 -0.038389739 0.23297872
-0.13140127 -0.038529973 0.23382978
-0.13140066 -0.038670212 0.23468085
-0.13844337 -0.03580223 0.22
-0.13812792 -0.035836857 0.22021277
-0.13801114 -0.035923418 0.22074468
-0.1376933 -0.035958041 0.22095744
-0.13717638 -0.035940729 0.22085106
-0.13659403 -0.035906106 0.2206383
-0.13607816 -0.035888791 0.22053191
-0.13582446 -0.035940729 0.22085106
-0.13589549 -0.036079232 0.22170213
-0.13589807 -0.036200419 0.22244681
-0.13583282 -0.036304291 0.22308511
-0.13550673 -0.036338918 0.22329788
-0.13511544 -0.036356229 0.22340426
-0.13465959 -0.036356229 0.22340426
-0.13420375 -0.036356229 0.22340426
-0.13374789 -0.036356229 0.22340426
-0.13329205 -0.036356229 0.22340426
-0.13283619 -0.036356229 0.22340426
-0.13238035 -0.036356229 0.22340426
-0.13205014 -0.036390852 0.22361702
-0.13184427 -0.036460105 0.22404255
-0.13169906 -0.036546666 0.22457446
-0.13161384 -0.036650542 0.22521277
-0.13158797 -0.03677173 0.22595745
-0.13155906 -0.036892917 0.22670212
-0.13165015 -0.037048727 0.22765957
-0.13161473 -0.037169915 0.22840425
-0.13163736 -0.037308417 0.22925532
-0.13171738 -0.037464228 0.23021276
-0.13173284 -0.03760273 0.23106383
-0.13162397 -0.037706606 0.23170213
-0.13127162 -0.037741229 0.23191489
-0.13097841 -0.037793167 0.23223405
-0.13074367 -0.037862416 0.23265958
-0.13050719 -0.037931666 0.23308511
-0.13871115 -0.03542171 0.22042553
-0.13839485 -0.035455901 0.2206383
-0.13821067 -0.035524279 0.22106382
-0.13789219 -0.035558473 0.2212766
-0.13750677 -0.035575569 0.22138298
-0.13698918 -0.035558473 0.2212766
-0.13653767 -0.035558473 0.2212766
-0.13628244 -0.035609759 0.22159575
-0.13622153 -0.035712332 0.22223404
-0.13602804 -0.035780713 0.22265957
-0.13576804 -0.035831999 0.22297873
-0.13544217 -0.03586619 0.22319148
-0.13511544 -0.03590038 0.22340426
-0.13465959 -0.03590038 0.22340426
-0.13420375 -0.03590038 0.22340426
-0.13374789 -0.03590038 0.22340426
-0.13335551 -0.035917476 0.22351064
-0.13283619 -0.03590038 0.22340426
-0.13244338 -0.035917476 0.22351064
-0.13205014 -0.035934571 0.22361702
-0.13178167 -0.035985857 0.22393617
-0.13163666 -0.036071334 0.22446808
-0.13155167 -0.03617391 0.22510639
-0.13146406 -0.036276478 0.22574468
-0.13143559 -0.03639615 0.22648937
-0.13134256 -0.036498718 0.22712766
-0.13124692 -0.036601294 0.22776596
-0.13133194 -0.036755152 0.22872341
-0.13147391 -0.036926106 0.22978723
-0.13161154 -0.037097059 0.23085107
-0.13144267 -0.037182536 0.23138298
-0.13103075 -0.037199631 0.23148936
-0.13049841 -0.037182536 0.23138298
-0.13014583 -0.037216727 0.23159574
-0.12979241 -0.037250917 0.23180851
-0.13891199 -0.035022572 0.22074468
-0.13852829 -0.035039451 0.22085106
-0.13827719 -0.035090089 0.22117022
-0.13802478 -0.035140719 0.22148935
-0.137705 -0.035174478 0.22170213
-0.13731848 -0.035191357 0.22180851
-0.13699718 -0.035225116 0.22202128
-0.13674042 -0.035275746 0.22234042
-0.13648237 -0.035326384 0.22265957
-0.13615803 -0.035360143 0.22287235
-0.13576804 -0.035377018 0.22297873
-0.13544217 -0.035410773 0.22319148
-0.13524412 -0.035478286 0.22361702
-0.1349802 -0.035528924 0.22393617
-0.13465108 -0.035562679 0.22414893
-0.13419372 -0.035562679 0.22414893
-0.13373634 -0.035562679 0.22414893
-0.13321573 -0.0355458 0.22404255
-0.13275857 -0.0355458 0.22404255
-0.13230142 -0.0355458 0.22404255
-0.13203208 -0.035596438 0.2243617
-0.13182384 -0.035663951 0.22478724
-0.131676 -0.03574834 0.22531915
-0.13152601 -0.035832733 0.22585106
-0.13137385 -0.035917126 0.22638299
-0.13115799 -0.035984639 0.2268085
-0.13100173 -0.036069032 0.22734043
-0.13102652 -0.036204059 0.22819149
-0.13116957 -0.03637284 0.22925532
-0.13130829 -0.036541622 0.23031914
-0.1311405 -0.036626019 0.23085107
-0.13066946 -0.036626019 0.23085107
-0.13013841 -0.036609136 0.23074467
-0.12972736 -0.036626019 0.23085107
-0.12937546 -0.036659773 0.23106383
-0.13891199 -0.034572151 0.22074468
-0.13846157 -0.034572151 0.22074468
-0.13821067 -0.034622133 0.22106382
-0.13795848 -0.034672119 0.22138298
-0.13783714 -0.034755424 0.22191489
-0.13758191 -0.03480541 0.22223404
-0.13732539 -0.034855392 0.22255319
-0.13700213 -0.034888715 0.22276595
-0.13661279 -0.034905378 0.22287235
-0.13615803 -0.034905378 0.22287235
-0.13570327 -0.034905378 0.22287235
-0.13550673 -0.034972023 0.22329788
-0.13543715 -0.035071988 0.22393617
-0.13542907 -0.035188619 0.22468086
-0.13522625 -0.035255264 0.22510639
-0.1348943 -0.035288587 0.22531915
-0.13443455 -0.035288587 0.22531915
-0.13384828 -0.035255264 0.22510639
-0.13326287 -0.035221942 0.22489361
-0.13274117 -0.035205279 0.22478724
-0.13234511 -0.035221942 0.22489361
-0.13207337 -0.035271924 0.22521277
-0.13180035 -0.03532191 0.22553192
-0.13158797 -0.035388555 0.22595745
-0.13137385 -0.035455201 0.22638299
-0.13109648 -0.035505183 0.22670212
-0.13087912 -0.035571828 0.22712766
-0.13078217 -0.035671797 0.22776596
-0.13086523 -0.035821747 0.22872341
-0.13088374 -0.035955038 0.22957447
-0.13065703 -0.036021683 0.23
-0.13024794 -0.036038343 0.23010638
-0.12983841 -0.036055002 0.23021276
-0.1296078 -0.036121648 0.2306383
-0.12931588 -0.036171634 0.23095745
-0.13871115 -0.034072395 0.22042553
-0.13826138 -0.034072395 0.22042553
-0.13794464 -0.034105286 0.2206383
-0.13782591 -0.034187507 0.22117022
-0.13777107 -0.034286171 0.22180851
-0.13771364 -0.034384836 0.22244681
-0.13745667 -0.03443417 0.22276595
-0.13713299 -0.034467056 0.22297873
-0.13661279 -0.034450613 0.22287235
-0.13609304 -0.03443417 0.22276595
-0.13570327 -0.034450613 0.22287235
-0.13550673 -0.03451639 0.22329788
-0.13556582 -0.034647942 0.22414893
-0.13568558 -0.034795944 0.22510639
-0.13567358 -0.034911051 0.22585106
-0.1354675 -0.034976825 0.22627659
-0.1350058 -0.034976825 0.22627659
-0.13441758 -0.034943938 0.22606383
-0.13376719 -0.034894608 0.22574468
-0.13311809 -0.034845274 0.22542553
-0.13265812 -0.034845274 0.22542553
-0.13226055 -0.034861717 0.22553192
-0.13192469 -0.034894608 0.22574468
-0.13164993 -0.034943938 0.22606383
-0.13137385 -0.034993272 0.22638299
-0.13115799 -0.035059046 0.2268085
-0.13094041 -0.035124823 0.22723404
-0.13072109 -0.035190601 0.22765957
-0.13062176 -0.035289269 0.22829787
-0.13039853 -0.035355046 0.22872341
-0.13011314 -0.035404377 0.22904256
-0.12976621 -0.035437264 0.22925532
-0.12953842 -0.035503041 0.22968085
-0.12954801 -0.035634596 0.23053192
-0.12943502 -0.03573326 0.23117021
-0.13799447 -0.033557717 0.22
-0.13761207 -0.033573944 0.22010638
-0.13756073 -0.033671308 0.22074468
-0.13763893 -0.033801123 0.22159575
-0.13771364 -0.033930942 0.22244681
-0.13758796 -0.034012076 0.22297873
-0.1371984 -0.034028303 0.22308511
-0.13661279 -0.033995852 0.22287235
-0.13615803 -0.033995852 0.22287235
-0.13583282 -0.034028303 0.22308511
-0.13563585 -0.034093212 0.22351064
-0.1356945 -0.034223028 0.2243617
-0.13581382 -0.034369074 0.22531915
-0.13586532 -0.034498889 0.22617021
-0.13572226 -0.034580026 0.22670212
-0.13532315 -0.034596253 0.2268085
-0.13473386 -0.034563798 0.22659574
-0.13401935 -0.034498889 0.22617021
-0.13336939 -0.034450207 0.22585106
-0.13284594 -0.034433983 0.22574468
-0.13238531 -0.034433983 0.22574468
-0.13204904 -0.034466438 0.22595745
-0.13171187 -0.034498889 0.22617021
-0.13149732 -0.034563798 0.22659574
-0.13128105 -0.034628708 0.22702128
-0.13112432 -0.034709841 0.22755319
-0.13084327 -0.034758523 0.22787234
-0.13050002 -0.034790978 0.2280851
-0.13009529 -0.034807205 0.22819149
-0.12962967 -0.034807205 0.22819149
-0.12928447 -0.03483966 0.22840425
-0.12923843 -0.034953251 0.22914894
-0.12936868 -0.035115521 0.23021276
-0.12937546 -0.03524534 0.23106383
-0.12920071 -0.035326473 0.23159574
-0.13779427 -0.033060782 0.21968085
-0.13747905 -0.033092804 0.21989362
-0.13736184 -0.033172853 0.22042553
-0.13757284 -0.033332955 0.22148935
-0.1377795 -0.033493057 0.22255319
-0.1376536 -0.033573106 0.22308511
-0.13732927 -0.033605129 0.22329788
-0.13687363 -0.033605129 0.22329788
-0.13648298 -0.033621136 0.22340426
-0.13615668 -0.033653155 0.22361702
-0.13595863 -0.033717196 0.22404255
-0.13582319 -0.033797245 0.22457446
-0.13581382 -0.033909317 0.22531915
-0.1358014 -0.034021389 0.22606383
-0.13559489 -0.03408543 0.22648937
-0.13525969 -0.034117449 0.22670212
-0.13473386 -0.034101438 0.22659574
-0.13414542 -0.034069419 0.22638299
-0.13355784 -0.034037396 0.22617021
-0.13303375 -0.034021389 0.22606383
-0.13257247 -0.034021389 0.22606383
-0.13223554 -0.034053408 0.22627659
-0.13195969 -0.034101438 0.22659574
-0.131806 -0.034181487 0.22712766
-0.13158864 -0.034245528 0.22755319
-0.13143082 -0.034325577 0.2280851
-0.1310876 -0.0343576 0.22829787
-0.13062176 -0.0343576 0.22829787
-0.12997398 -0.03430957 0.22797872
-0.12938793 -0.034277551 0.22776596
-0.12904361 -0.03430957 0.22797872
-0.12899843 -0.034421641 0.22872341
-0.12912954 -0.034581739 0.22978723
-0.12925632 -0.034741841 0.23085107
-0.12914136 -0.034837902 0.23148936
-0.12884642 -0.034885932 0.23180851
-0.13741255 -0.032628328 0.21978724
-0.13736184 -0.032723084 0.22042553
-0.13757284 -0.032881014 0.22148935
-0.1377795 -0.033038944 0.22255319
-0.1377849 -0.033149496 0.22329788
-0.13759096 -0.033212665 0.22372341
-0.13726488 -0.033244252 0.22393617
-0.13700293 -0.03329163 0.22425532
-0.13667488 -0.033323217 0.22446808
-0.13634598 -0.033354804 0.22468086
-0.13608055 -0.033402182 0.22499999
-0.13581382 -0.03344956 0.22531915
-0.13560969 -0.033512734 0.22574468
-0.13534012 -0.033560112 0.22606383
-0.13494232 -0.033575904 0.22617021
-0.13454409 -0.033591699 0.22627659
-0.13408238 -0.033591699 0.22627659
-0.13355784 -0.033575904 0.22617021
-0.13315895 -0.033591699 0.22627659
-0.13275965 -0.03360749 0.22638299
-0.13254638 -0.03367066 0.2268085
-0.13239336 -0.033749629 0.22734043
-0.13223816 -0.033828594 0.22787234
-0.13208078 -0.033907559 0.22840425
-0.13185994 -0.033970729 0.22882979
-0.13145411 -0.033986524 0.22893617
-0.13086523 -0.033954937 0.22872341
-0.13015594 -0.033891764 0.22829787
-0.12950879 -0.033844385 0.22797872
-0.12910382 -0.033860177 0.2280851
-0.12905842 -0.033970729 0.22882979
-0.12912954 -0.034112867 0.22978723
-0.12919675 -0.034255002 0.23074467
-0.12908202 -0.034349762 0.23138298
-0.12884642 -0.034412935 0.23180851
-0.12890364 -0.03455507 0.23276596
-0.12936784 -0.03480776 0.23446809
-0.13757284 -0.032429069 0.22148935
-0.13784535 -0.032600407 0.22265957
-0.13804747 -0.032756168 0.22372341
-0.1379181 -0.032834046 0.22425532
-0.13772134 -0.032896351 0.22468086
-0.13739286 -0.032927502 0.22489361
-0.13699876 -0.032943077 0.22499999
-0.13660422 -0.032958653 0.22510639
-0.13627358 -0.032989804 0.22531915
-0.13587794 -0.033005379 0.22542553
-0.13554578 -0.033036534 0.2256383
-0.13514906 -0.033052109 0.22574468
-0.1347519 -0.033067685 0.22585106
-0.13435432 -0.03308326 0.22595745
-0.1339563 -0.033098835 0.22606383
-0.13355784 -0.033114411 0.22617021
-0.13315895 -0.033129986 0.22627659
-0.13288441 -0.033176716 0.22659574
-0.13279507 -0.033270169 0.22723404
-0.13282703 -0.033394776 0.2280851
-0.13279378 -0.033503812 0.22882979
-0.13263445 -0.033581689 0.2293617
-0.13228905 -0.033612844 0.22957447
-0.13182062 -0.033612844 0.22957447
-0.1311087 -0.033550538 0.22914894
-0.13045917 -0.033503812 0.22882979
-0.12993184 -0.033488236 0.22872341
-0.12958556 -0.033519387 0.22893617
-0.12941842 -0.033597268 0.22946809
-0.12936868 -0.033706296 0.23021276
-0.12931588 -0.033815328 0.23095745
-0.12914136 -0.033893209 0.23148936
-0.12902381 -0.033986665 0.23212767
-0.12908038 -0.034126848 0.23308511
-0.12936784 -0.034329336 0.23446809
-0.12976661 -0.034562971 0.23606382
-0.12992582 -0.034734309 0.23723404
-0.13824522 -0.032453254 0.22478724
-0.13791697 -0.032483973 0.22499999
-0.13752286 -0.032499332 0.22510639
-0.13706353 -0.032499332 0.22510639
-0.13666877 -0.032514691 0.22521277
-0.13627358 -0.032530047 0.22531915
-0.13594207 -0.032560766 0.22553192
-0.13554578 -0.032576125 0.2256383
-0.13508537 -0.032576125 0.2256383
-0.13462496 -0.032576125 0.2256383
-0.13422781 -0.032591484 0.22574468
-0.13383022 -0.032606844 0.22585106
-0.13349503 -0.032637563 0.22606383
-0.13309635 -0.032652918 0.22617021
-0.13294679 -0.032729711 0.22670212
-0.13291942 -0.032837227 0.22744681
-0.13307483 -0.032990813 0.22851063
-0.13310246 -0.033113685 0.2293617
-0.13294205 -0.033190478 0.22989361
-0.13253427 -0.033205837 0.23
-0.13194278 -0.033175118 0.22978723
-0.13129131 -0.033129044 0.22946809
-0.13076243 -0.033113685 0.2293617
-0.13035487 -0.033129044 0.22946809
-0.1301275 -0.033190478 0.22989361
-0.12995842 -0.033267274 0.23042554
-0.12984693 -0.033359427 0.23106383
-0.12961371 -0.033420861 0.23148936
-0.12937875 -0.033482298 0.23191489
-0.1292012 -0.033559091 0.2324468
-0.1291393 -0.033666603 0.23319149
-0.12936784 -0.033850912 0.23446809
-0.12970813 -0.034065932 0.23595744
-0.12986755 -0.034234881 0.23712766
-0.13791697 -0.032024868 0.22499999
-0.13732788 -0.031994585 0.22478724
-0.13680443 -0.031979442 0.22468086
-0.13634598 -0.031979442 0.22468086
-0.13608055 -0.032024868 0.22499999
-0.13581382 -0.032070294 0.22531915
-0.13554578 -0.032115716 0.2256383
-0.13508537 -0.032115716 0.2256383
-0.13456149 -0.032100577 0.22553192
-0.1341013 -0.032100577 0.22553192
-0.13376719 -0.03213086 0.22574468
-0.13349503 -0.032176286 0.22606383
-0.13315895 -0.032206569 0.22627659
-0.13300918 -0.032282278 0.2268085
-0.13298158 -0.03238827 0.22755319
-0.13313679 -0.032539688 0.22861703
-0.1331642 -0.032660823 0.22946809
-0.13294205 -0.032721389 0.22989361
-0.13247295 -0.032721389 0.22989361
-0.1318817 -0.032691106 0.22968085
-0.13141304 -0.032691106 0.22968085
-0.13100503 -0.032706246 0.22978723
-0.13071747 -0.032751672 0.23010638
-0.13054901 -0.032827381 0.2306383
-0.13037841 -0.03290309 0.23117021
-0.13014583 -0.032963656 0.23159574
-0.12985197 -0.033009082 0.23191489
-0.1295568 -0.033054508 0.23223405
-0.12926033 -0.033099934 0.2325532
-0.1291393 -0.033190783 0.23319149
-0.12919174 -0.033327062 0.23414893
-0.12941574 -0.033508763 0.23542553
-0.12951797 -0.033660177 0.23648936
-0.12920956 -0.033705603 0.23680851
-0.13752572 -0.031476215 0.2243617
-0.13693793 -0.031446364 0.22414893
-0.13628624 -0.03140159 0.22382979
-0.13582952 -0.03140159 0.22382979
-0.13563016 -0.031461291 0.22425532
-0.13555732 -0.031550836 0.22489361
-0.13535406 -0.031610537 0.22531915
-0.13495798 -0.031625461 0.22542553
-0.13449802 -0.031625461 0.22542553
-0.1341013 -0.031640388 0.22553192
-0.13376719 -0.031670235 0.22574468
-0.13355784 -0.031729933 0.22617021
-0.13328417 -0.031774707 0.22648937
-0.13313396 -0.031849332 0.22702128
-0.13298158 -0.031923953 0.22755319
-0.13301289 -0.032043353 0.22840425
-0.13291726 -0.032132901 0.22904256
-0.13269597 -0.032192603 0.22946809
-0.13222775 -0.032192603 0.22946809
-0.13175954 -0.032192603 0.22946809
-0.13141304 -0.03222245 0.22968085
-0.13112634 -0.032267224 0.23
-0.13089877 -0.032326922 0.23042554
-0.13072968 -0.032401547 0.23095745
-0.13049841 -0.032461245 0.23138298
-0.13020563 -0.032506019 0.23170213
-0.12991154 -0.032550793 0.23202127
-0.1295568 -0.032580644 0.23223405
-0.1292012 -0.032610491 0.2324468
-0.12902147 -0.032685116 0.23297872
-0.12895696 -0.032789588 0.2337234
-0.12900637 -0.032923911 0.23468085
-0.12899362 -0.033043306 0.23553191
-0.12868716 -0.033088084 0.23585106
-0.12814809 -0.033073157 0.23574468
-0.13648298 -0.030886043 0.22340426
-0.13576804 -0.030827213 0.22297873
-0.13537762 -0.030841919 0.22308511
-0.13524412 -0.030915458 0.22361702
-0.13530083 -0.031033119 0.22446808
-0.13516234 -0.031106656 0.22499999
-0.1348943 -0.031150781 0.22531915
-0.13449802 -0.031165486 0.22542553
-0.1341013 -0.031180196 0.22553192
-0.13383022 -0.031224318 0.22585106
-0.13368349 -0.031297859 0.22638299
-0.13347198 -0.031356685 0.2268085
-0.13325873 -0.031415518 0.22723404
-0.13304375 -0.031474348 0.22765957
-0.13295093 -0.031562593 0.22829787
-0.13273205 -0.031621426 0.22872341
-0.13251142 -0.031680256 0.22914894
-0.13210514 -0.031694964 0.22925532
-0.13175954 -0.031724378 0.22946809
-0.13147391 -0.031768501 0.22978723
-0.13124764 -0.031827331 0.23021276
-0.13101962 -0.03188616 0.2306383
-0.13072968 -0.031930286 0.23095745
-0.13043842 -0.031974409 0.2312766
-0.13008606 -0.032003824 0.23148936
-0.12973285 -0.032033239 0.23170213
-0.12937875 -0.032062653 0.23191489
-0.12908293 -0.032106776 0.23223405
-0.12890364 -0.032180317 0.23276596
-0.12872218 -0.032253854 0.23329787
-0.12865549 -0.032356806 0.23404256
-0.12852751 -0.032445051 0.23468085
-0.12828083 -0.032503881 0.23510638
-0.12785895 -0.032518592 0.23521277
-0.12720616 -0.032474469 0.23489362
-0.12655468 -0.032430343 0.23457447
-0.13622302 -0.030372232 0.22297873
-0.13563849 -0.030343249 0.22276595
-0.1352485 -0.030357741 0.22287235
-0.13517977 -0.030444684 0.22351064
-0.13523671 -0.030560609 0.2243617
-0.13509843 -0.030633062 0.22489361
-0.1348943 -0.030691024 0.22531915
-0.13449802 -0.030705513 0.22542553
-0.13416456 -0.030734496 0.2256383
-0.1339563 -0.030792458 0.22606383
-0.13374631 -0.03085042 0.22648937
-0.1335972 -0.030922873 0.22702128
-0.13338351 -0.030980835 0.22744681
-0.13316809 -0.031038798 0.22787234
-0.13301289 -0.03111125 0.22840425
-0.13279378 -0.031169213 0.22882979
-0.13257293 -0.031227175 0.22925532
-0.13222775 -0.031256158 0.22946809
-0.13182062 -0.031270646 0.22957447
-0.13153477 -0.031314116 0.22989361
-0.13130829 -0.031372081 0.23031914
-0.13108006 -0.031430043 0.23074467
-0.13072968 -0.031459026 0.23095745
-0.13037841 -0.031488005 0.23117021
-0.1299665 -0.031502496 0.2312766
-0.12961371 -0.031531475 0.23148936
-0.12931941 -0.03157495 0.23180851
-0.12914206 -0.031647403 0.23234043
-0.12890364 -0.031705365 0.23276596
-0.12866348 -0.031763326 0.23319149
-0.12848006 -0.03183578 0.2337234
-0.1282362 -0.031893741 0.23414893
-0.12804866 -0.031966195 0.23468085
-0.12768546 -0.031995177 0.23489362
-0.12714855 -0.031980686 0.23478724
-0.12661208 -0.031966195 0.23468085
-0.12619041 -0.031980686 0.23478724
-0.12588221 -0.032024156 0.23510638
-0.13570327 -0.029902978 0.22287235
-0.13550673 -0.029960072 0.22329788
-0.1353728 -0.030031439 0.22382979
-0.13530083 -0.03011708 0.22446808
-0.13509843 -0.030174173 0.22489361
-0.1348943 -0.030231267 0.22531915
-0.13456149 -0.030259816 0.22553192
-0.13429107 -0.030302634 0.22585106
-0.13401935 -0.030345455 0.22617021
-0.13380913 -0.03040255 0.22659574
-0.1335972 -0.030459644 0.22702128
-0.13344589 -0.030531012 0.22755319
-0.1333546 -0.030616652 0.22819149
-0.13319875 -0.030688019 0.22872341
-0.13310246 -0.03077366 0.2293617
-0.13281901 -0.030816481 0.22968085
-0.13241166 -0.030830754 0.22978723
-0.13194278 -0.030830754 0.22978723
-0.13159564 -0.030859303 0.23
-0.13130829 -0.030902121 0.23031914
-0.13108006 -0.030959215 0.23074467
-0.13078989 -0.031002037 0.23106383
-0.13043842 -0.031030584 0.2312766
-0.13002628 -0.031044858 0.23138298
-0.12967327 -0.031073403 0.23159574
-0.1294381 -0.031130498 0.23202127
-0.12926033 -0.031201867 0.2325532
-0.12908038 -0.031273235 0.23308511
-0.12872218 -0.031301782 0.23329787
-0.12842157 -0.0313446 0.23361702
-0.12811968 -0.031387422 0.23393618
-0.12787452 -0.031444516 0.23436171
-0.12756979 -0.031487335 0.23468085
-0.12720616 -0.031515881 0.23489362
-0.12678427 -0.031530157 0.235
-0.12636194 -0.031544428 0.23510638
-0.12605308 -0.031587251 0.23542553
-0.12602666 -0.031701438 0.2362766
-0.12616633 -0.031858448 0.23744681
-0.12630123 -0.032015454 0.23861702
-0.13589408 -0.029588778 0.22393617
-0.13563016 -0.029630948 0.22425532
-0.13536495 -0.029673116 0.22457446
-0.13509843 -0.029715285 0.22489361
-0.13483061 -0.029757455 0.22521277
-0.13462496 -0.029813681 0.2256383
-0.13429107 -0.029841794 0.22585106
-0.13401935 -0.029883962 0.22617021
-0.13380913 -0.029940188 0.22659574
-0.13365979 -0.030010471 0.22712766
-0.13350828 -0.030080752 0.22765957
-0.13347894 -0.030179149 0.22840425
-0.13338462 -0.030263487 0.22904256
-0.13328767 -0.030347826 0.22968085
-0.13294205 -0.030375937 0.22989361
-0.13247295 -0.030375937 0.22989361
-0.1318817 -0.030347826 0.22968085
-0.13147391 -0.030361881 0.22978723
-0.13112634 -0.030389994 0.23
-0.13089877 -0.03044622 0.23042554
-0.13072968 -0.030516502 0.23095745
-0.13049841 -0.030572727 0.23138298
-0.1302654 -0.030628953 0.23180851
-0.1299711 -0.030671123 0.23212767
-0.1297942 -0.030741405 0.23265958
-0.12961511 -0.030811688 0.23319149
-0.12931605 -0.030853856 0.23351064
-0.12889826 -0.030867914 0.23361702
-0.12842157 -0.030867914 0.23361702
-0.12806141 -0.030896025 0.23382978
-0.12775843 -0.030938195 0.23414893
-0.12751196 -0.030994421 0.23457447
-0.12726377 -0.031050647 0.235
-0.12689906 -0.03107876 0.23521277
-0.12653346 -0.031106872 0.23542553
-0.12622397 -0.031149043 0.23574468
-0.1260834 -0.03123338 0.23638298
-0.12616633 -0.031373944 0.23744681
-0.12630123 -0.031528566 0.23861702
-0.12637526 -0.031669129 0.23968086
-0.12638907 -0.031795636 0.2406383
-0.12634332 -0.031908087 0.24148937
-0.12596145 -0.031936202 0.24170212
-0.12535782 -0.031908087 0.24148937
-0.12459003 -0.031837806 0.24095745
-0.12376963 -0.031753469 0.24031915
-0.1230064 -0.031683184 0.23978724
-0.13595863 -0.029145682 0.22404255
-0.13550147 -0.029145682 0.22404255
-0.13517258 -0.029173363 0.22425532
-0.1348428 -0.02920104 0.22446808
-0.13470323 -0.029270237 0.22499999
-0.13449802 -0.029325593 0.22542553
-0.13422781 -0.029367113 0.22574468
-0.13401935 -0.029422469 0.22617021
-0.13374631 -0.02946399 0.22648937
-0.13365979 -0.029547025 0.22712766
-0.13350828 -0.02961622 0.22765957
-0.13347894 -0.029713096 0.22840425
-0.13332266 -0.029782293 0.22893617
-0.13310246 -0.029837651 0.2293617
-0.13269597 -0.029851491 0.22946809
-0.13216645 -0.029837651 0.2293617
-0.13157627 -0.029809972 0.22914894
-0.13104784 -0.029796133 0.22904256
-0.13070178 -0.029823812 0.22925532
-0.13053617 -0.029893007 0.22978723
-0.1304888 -0.029989883 0.23053192
-0.13049841 -0.030100599 0.23138298
-0.13044475 -0.030197475 0.23212767
-0.13032849 -0.03028051 0.23276596
-0.13015029 -0.030349707 0.23329787
-0.12991077 -0.030405065 0.2337234
-0.12949277 -0.030418903 0.23382978
-0.12901565 -0.030418903 0.23382978
-0.12848006 -0.030405065 0.2337234
-0.12800315 -0.030405065 0.2337234
-0.12770039 -0.030446583 0.23404256
-0.12745415 -0.030501941 0.23446809
-0.12726377 -0.030571137 0.235
-0.12701385 -0.030626494 0.23542553
-0.12664782 -0.030654171 0.23563829
-0.12628093 -0.030681852 0.23585106
-0.12602666 -0.03073721 0.2362766
-0.12599675 -0.030847924 0.23712766
-0.12618861 -0.031013997 0.23840426
-0.12631916 -0.031166228 0.23957446
-0.12633319 -0.031290784 0.24053192
-0.12617634 -0.031373821 0.24117021
-0.12585057 -0.03141534 0.24148937
-0.12535782 -0.03141534 0.24148937
-0.12470005 -0.031373821 0.24117021
-0.12387921 -0.031290784 0.24053192
-0.1230064 -0.031193908 0.23978724
-0.12219099 -0.031110872 0.23914893
-0.13544217 -0.028579554 0.22319148
-0.13511544 -0.028606798 0.22340426
-0.13478783 -0.028634042 0.22361702
-0.13452327 -0.02867491 0.22393617
-0.13444847 -0.028756643 0.22457446
-0.13430761 -0.028824756 0.22510639
-0.1341013 -0.028879244 0.22553192
-0.13389327 -0.028933734 0.22595745
-0.13374631 -0.029001845 0.22648937
-0.1335972 -0.029069956 0.22702128
-0.13344589 -0.029138068 0.22755319
-0.13329242 -0.029206177 0.2280851
-0.13301289 -0.029247046 0.22840425
-0.13260856 -0.029260667 0.22851063
-0.13208078 -0.029247046 0.22840425
-0.13155343 -0.029233424 0.22829787
-0.13102652 -0.029219802 0.22819149
-0.1305609 -0.029219802 0.22819149
-0.13027723 -0.029260667 0.22851063
-0.13011314 -0.02932878 0.22904256
-0.13024794 -0.029465003 0.23010638
-0.13043842 -0.029614847 0.2312766
-0.13056432 -0.02975107 0.23234043
-0.13056676 -0.029860048 0.23319149
-0.13044702 -0.02994178 0.23382978
-0.13014729 -0.029982649 0.23414893
-0.12972844 -0.02999627 0.23425531
-0.12913305 -0.029969027 0.23404256
-0.12848006 -0.029928159 0.2337234
-0.12794489 -0.029914537 0.23361702
-0.12764235 -0.029955406 0.23393618
-0.12745415 -0.030023515 0.23446809
-0.12732138 -0.030105248 0.23510638
-0.12707123 -0.030159738 0.23553191
-0.12670501 -0.030186983 0.23574468
-0.12628093 -0.030200606 0.23585106
-0.12591316 -0.030227849 0.23606382
-0.12577064 -0.030309584 0.23670213
-0.12585075 -0.030445807 0.23776595
-0.12598261 -0.030595651 0.23893617
-0.12599795 -0.030718252 0.23989362
-0.12584241 -0.030799987 0.24053192
-0.1256288 -0.030868098 0.24106383
-0.12530258 -0.030908963 0.24138297
-0.12481005 -0.030908963 0.24138297
-0.12409837 -0.030854477 0.24095745
-0.12322469 -0.030759118 0.24021277
-0.12240841 -0.030677384 0.23957446
-0.12186543 -0.030663762 0.23946808
-0.12175426 -0.030759118 0.24021277
-0.12196226 -0.030936209 0.24159575
-0.12216463 -0.031113299 0.24297872
-0.12225481 -0.031263143 0.24414894
-0.12234021 -0.031412989 0.24531914
-0.13479659 -0.027990086 0.22212766
-0.13460071 -0.028043708 0.22255319
-0.13433897 -0.028083924 0.22287235
-0.13426764 -0.028164355 0.22351064
-0.13419372 -0.028244784 0.22414893
-0.13411719 -0.028325217 0.22478724
-0.13397479 -0.028392242 0.22531915
-0.13383022 -0.028459268 0.22585106
-0.13368349 -0.028526297 0.22638299
-0.13347198 -0.028579915 0.2268085
-0.13332112 -0.028646942 0.22734043
-0.13304375 -0.028687157 0.22765957
-0.13251726 -0.028673751 0.22755319
-0.13192949 -0.028646942 0.22734043
-0.13140407 -0.028633537 0.22723404
-0.13094041 -0.028633537 0.22723404
-0.13059892 -0.028660348 0.22744681
-0.13031743 -0.028700564 0.22776596
-0.12997398 -0.028727373 0.22797872
-0.1298714 -0.028807806 0.22861703
-0.13000707 -0.028941857 0.22968085
-0.1303184 -0.029116124 0.23106383
-0.13056432 -0.029276988 0.23234043
-0.13068588 -0.029411038 0.23340425
