# .PCD v0.7 - Point Cloud Data file format
VERSION 0.7
FIELDS x y z
SIZE 4 4 4
TYPE F F F
COUNT 1 1 1
WIDTH 1213
HEIGHT 1
VIEWPOINT 0 0 0 1 0 0 0
POINTS 1213
DATA ascii
0.0013220669 -0.0091840299 0.024361702
0.0013657858 -0.0091439253 0.024255319
0.0014152779 -0.0091439253 0.024255319
0.0014647702 -0.0091439253 0.024255319
0.0015142623 -0.0091439253 0.024255319
0.001570613 -0.0091840299 0.024361702
0.001627398 -0.0092241354 0.024468085
0.0016773243 -0.0092241354 0.024468085
0.0017272505 -0.0092241354 0.024468085
0.00176945 -0.0091840299 0.024361702
0.0018191593 -0.0091840299 0.024361702
0.0018688685 -0.0091840299 0.024361702
0.0019101996 -0.0091439253 0.024255319
0.0019510967 -0.0091038197 0.024148935
0.0019915595 -0.0090637151 0.024042552
0.0020225591 -0.0089835059 0.023829788
0.002043444 -0.0088631911 0.023510639
0.0020535628 -0.0087027708 0.023085106
0.002032904 -0.0084220367 0.022340426
0.0019993081 -0.008101197 0.021489361
0.0019521248 -0.0077402527 0.020531915
0.0019423609 -0.0075397277 0.02
-0.0011808092 -0.0073792548 0.01968085
-0.0011776453 -0.0076185823 0.020319149
-0.0011659279 -0.0078180218 0.020851064
-0.001146308 -0.0079775723 0.021276595
-0.0011194373 -0.008097236 0.021595744
-0.0010912641 -0.0082168998 0.021914894
-0.0010617885 -0.0083365636 0.022234043
-0.0010310104 -0.0084562274 0.022553191
-0.00099428371 -0.0085360026 0.022765957
-0.00095668877 -0.0086157788 0.022978723
-0.00091822556 -0.0086955549 0.023191489
-0.00087090413 -0.0086955549 0.023191489
-0.00082358264 -0.0086955549 0.023191489
-0.000779822 -0.0087354425 0.023297872
-0.00073897105 -0.0088152178 0.023510639
-0.00070037844 -0.0089348815 0.023829788
-0.00065466418 -0.0089747701 0.023936171
-0.00060851575 -0.0090146568 0.024042552
-0.00056193315 -0.0090545453 0.024148935
-0.00051265809 -0.0090545453 0.024148935
-0.00046338298 -0.0090545453 0.024148935
-0.0004141079 -0.0090545453 0.024148935
-0.00036483281 -0.0090545453 0.024148935
-0.00031416758 -0.0090146568 0.024042552
-0.00026510956 -0.0090146568 0.024042552
-0.00021605153 -0.0090146568 0.024042552
-0.00016773242 -0.0090545453 0.024148935
-0.000119501 -0.0091343205 0.024361702
-6.9791771e-05 -0.0091343205 0.024361702
-2.0082533e-05 -0.0091343205 0.024361702
2.9626704e-05 -0.0091343205 0.024361702
7.9682388e-05 -0.0091742091 0.024468085
0.00013017221 -0.0092140967 0.024574468
0.00018109618 -0.0092539843 0.024680851
0.00023145664 -0.0092539843 0.024680851
0.00028181708 -0.0092539843 0.024680851
0.00033217753 -0.0092539843 0.024680851
0.00038088911 -0.0092140967 0.024574468
0.0004310325 -0.0092140967 0.024574468
0.00048117587 -0.0092140967 0.024574468
0.00053131924 -0.0092140967 0.024574468
0.00057894544 -0.0091742091 0.024468085
0.00062613754 -0.0091343205 0.024361702
0.00067289546 -0.0090944329 0.024255319
0.00071921927 -0.0090545453 0.024148935
0.0007718798 -0.0090944329 0.024255319
0.0008249745 -0.0091343205 0.024361702
0.00087468373 -0.0091343205 0.024361702
0.00092439295 -0.0091343205 0.024361702
0.00096984848 -0.0090944329 0.024255319
0.0010193406 -0.0090944329 0.024255319
0.0010641449 -0.0090545453 0.024148935
0.00111342 -0.0090545453 0.024148935
0.0011678172 -0.0090944329 0.024255319
0.0012173093 -0.0090944329 0.024255319
0.0012723577 -0.0091343205 0.024361702
0.0013220669 -0.0091343205 0.024361702
0.0013717761 -0.0091343205 0.024361702
0.0014214853 -0.0091343205 0.024361702
0.0014711946 -0.0091343205 0.024361702
0.0015209038 -0.0091343205 0.024361702
0.0015774716 -0.0091742091 0.024468085
0.001627398 -0.0091742091 0.024468085
0.001684617 -0.0092140967 0.024574468
0.0017272505 -0.0091742091 0.024468085
0.0017771769 -0.0091742091 0.024468085
0.0018271032 -0.0091742091 0.024468085
0.0018688685 -0.0091343205 0.024361702
0.0019101996 -0.0090944329 0.024255319
0.0019596918 -0.0090944329 0.024255319
0.0020003717 -0.0090545453 0.024148935
0.0020406176 -0.0090146568 0.024042552
0.0020526904 -0.0088551063 0.023617022
0.0020630262 -0.0086955549 0.023191489
0.0020425844 -0.0084163398 0.022446809
0.0020092058 -0.008097236 0.021595744
0.001972354 -0.0077781337 0.020744681
0.0019630243 -0.0075786943 0.020212766
-0.0011488956 -0.0071407431 0.019148936
-0.0011529825 -0.0074184383 0.019893616
-0.0011361848 -0.0075771217 0.020319149
-0.0011176504 -0.0077358051 0.020744681
-0.001091865 -0.0078548174 0.021063831
-0.001064777 -0.0079738293 0.021382978
-0.0010414672 -0.0081325127 0.021808511
-0.0010164207 -0.0082911961 0.022234043
-0.00098499132 -0.0084102079 0.022553191
-0.00094783056 -0.0084895492 0.022765957
-0.00090558943 -0.0085292207 0.02287234
-0.00086291414 -0.0085688913 0.022978723
-0.00081980473 -0.0086085619 0.023085106
-0.00077626121 -0.0086482326 0.023191489
-0.00073562725 -0.0087275747 0.023404256
-0.00069725176 -0.0088465875 0.023723405
-0.00065466418 -0.0089259287 0.023936171
-0.00060851575 -0.0089655994 0.024042552
-0.00056193315 -0.00900527 0.024148935
-0.00051265809 -0.00900527 0.024148935
-0.00046542432 -0.0090449406 0.024255319
-0.0004141079 -0.00900527 0.024148935
-0.00036483281 -0.00900527 0.024148935
-0.00031416758 -0.0089655994 0.024042552
-0.00026510956 -0.0089655994 0.024042552
-0.00021605153 -0.0089655994 0.024042552
-0.00016773242 -0.00900527 0.024148935
-0.00011897917 -0.0090449406 0.024255319
-6.9791771e-05 -0.0090846112 0.024361702
-2.0082533e-05 -0.0090846112 0.024361702
2.9626704e-05 -0.0090846112 0.024361702
7.9682388e-05 -0.0091242827 0.024468085
0.00013017221 -0.0091639534 0.024574468
0.00018109618 -0.009203624 0.024680851
0.00023145664 -0.009203624 0.024680851
0.00028181708 -0.009203624 0.024680851
0.00033074574 -0.0091639534 0.024574468
0.00037924023 -0.0091242827 0.024468085
0.00042916654 -0.0091242827 0.024468085
0.00047909285 -0.0091242827 0.024468085
0.00053131924 -0.0091639534 0.024574468
0.00057894544 -0.0091242827 0.024468085
0.00062613754 -0.0090846112 0.024361702
0.00067289546 -0.0090449406 0.024255319
0.00072238763 -0.0090449406 0.024255319
0.0007718798 -0.0090449406 0.024255319
0.00082137197 -0.0090449406 0.024255319
0.00087468373 -0.0090846112 0.024361702
0.00092035631 -0.0090449406 0.024255319
0.00096984848 -0.0090449406 0.024255319
0.0010148699 -0.00900527 0.024148935
0.0010641449 -0.00900527 0.024148935
0.00111342 -0.00900527 0.024148935
0.0011626951 -0.00900527 0.024148935
0.0012173093 -0.0090449406 0.024255319
0.0012723577 -0.0090846112 0.024361702
0.0013220669 -0.0090846112 0.024361702
0.0013777664 -0.0091242827 0.024468085
0.0014276927 -0.0091242827 0.024468085
0.0014776191 -0.0091242827 0.024468085
0.0015275453 -0.0091242827 0.024468085
0.0015774716 -0.0091242827 0.024468085
0.0016344736 -0.0091639534 0.024574468
0.001684617 -0.0091639534 0.024574468
0.0017347604 -0.0091639534 0.024574468
0.0017771769 -0.0091242827 0.024468085
0.0018271032 -0.0091242827 0.024468085
0.0018688685 -0.0090846112 0.024361702
0.0019185777 -0.0090846112 0.024361702
0.0019596918 -0.0090449406 0.024255319
0.0020003717 -0.00900527 0.024148935
0.0020406176 -0.0089655994 0.024042552
0.0020619365 -0.0088465875 0.023723405
0.0020724898 -0.0086879041 0.023297872
0.0020619452 -0.0084498785 0.022659574
0.0020388984 -0.0081721833 0.021914894
0.0020128125 -0.0078944881 0.021170212
0.0019940194 -0.0076564634 0.020531915
-0.0011283199 -0.0072200317 0.019468086
-0.0011123903 -0.0073778462 0.019893616
-0.0010889927 -0.0074962075 0.020212766
-0.0010642926 -0.0076145688 0.020531915
-0.0010382901 -0.0077329301 0.020851064
-0.0010160655 -0.0078907441 0.021276595
-0.00099210429 -0.0080485595 0.021702128
-0.00096640666 -0.0082063749 0.02212766
-0.00093454326 -0.0083247358 0.022446809
-0.00089716533 -0.008403643 0.022659574
-0.00085891917 -0.0084825503 0.02287234
-0.00081602682 -0.0085220039 0.022978723
-0.00077626121 -0.0086009111 0.023191489
-0.00073562725 -0.0086798193 0.023404256
-0.00069412508 -0.0087587265 0.023617022
-0.00065175456 -0.0088376338 0.023829788
-0.00060851575 -0.008916541 0.024042552
-0.00056193315 -0.0089559946 0.024148935
-0.00051265809 -0.0089559946 0.024148935
-0.00046542432 -0.0089954482 0.024255319
-0.0004141079 -0.0089559946 0.024148935
-0.00036483281 -0.0089559946 0.024148935
-0.00031416758 -0.008916541 0.024042552
-0.00026510956 -0.008916541 0.024042552
-0.00021605153 -0.008916541 0.024042552
-0.00016773242 -0.0089559946 0.024148935
-0.00011897917 -0.0089954482 0.024255319
-6.9791771e-05 -0.0090349028 0.024361702
-2.0082533e-05 -0.0090349028 0.024361702
2.975608e-05 -0.0090743564 0.024468085
7.9682388e-05 -0.0090743564 0.024468085
0.00013017221 -0.00911381 0.024574468
0.00018109618 -0.0091532636 0.024680851
0.00023145664 -0.0091532636 0.024680851
0.00028060234 -0.00911381 0.024574468
0.00032931392 -0.0090743564 0.024468085
0.00037924023 -0.0090743564 0.024468085
0.00042916654 -0.0090743564 0.024468085
0.00047909285 -0.0090743564 0.024468085
0.00052901916 -0.0090743564 0.024468085
0.00057894544 -0.0090743564 0.024468085
0.00062613754 -0.0090349028 0.024361702
0.00067289546 -0.0089954482 0.024255319
0.00072238763 -0.0089954482 0.024255319
0.0007718798 -0.0089954482 0.024255319
0.0008249745 -0.0090349028 0.024361702
0.00087086414 -0.0089954482 0.024255319
0.00092035631 -0.0089954482 0.024255319
0.00096559478 -0.0089559946 0.024148935
0.0010103991 -0.008916541 0.024042552
0.0010594571 -0.008916541 0.024042552
0.0011085151 -0.008916541 0.024042552
0.0011626951 -0.0089559946 0.024148935
0.0012173093 -0.0089954482 0.024255319
0.0012723577 -0.0090349028 0.024361702
0.0013278401 -0.0090743564 0.024468085
0.0013837568 -0.00911381 0.024574468
0.0014339001 -0.00911381 0.024574468
0.0014840434 -0.00911381 0.024574468
0.0015341869 -0.00911381 0.024574468
0.0015843302 -0.00911381 0.024574468
0.0016344736 -0.00911381 0.024574468
0.001684617 -0.00911381 0.024574468
0.0017347604 -0.00911381 0.024574468
0.0017849037 -0.00911381 0.024574468
0.0018271032 -0.0090743564 0.024468085
0.0018770294 -0.0090743564 0.024468085
0.0019185777 -0.0090349028 0.024361702
0.0019596918 -0.0089954482 0.024255319
0.0020003717 -0.0089559946 0.024148935
0.0020406176 -0.008916541 0.024042552
0.0020711829 -0.0088376338 0.023829788
0.0020914166 -0.0087192729 0.023510639
0.0020909868 -0.0085220039 0.022978723
0.0020784887 -0.0082852822 0.022340426
0.002053271 -0.0080091059 0.021595744
0.0020146829 -0.007693476 0.020744681
0.0020148165 -0.0075356611 0.020319149
-0.0010885958 -0.0071803075 0.019468086
-0.0010660664 -0.0072980169 0.019787233
-0.0010367202 -0.0073764906 0.02
-0.001011803 -0.0074942005 0.020319149
-0.00099574425 -0.0076903841 0.020851064
-0.00097265129 -0.0078473305 0.021276595
-0.00094782189 -0.008004277 0.021702128
-0.00091682677 -0.0081219869 0.022021277
-0.00088031718 -0.0082004601 0.022234043
-0.00084693421 -0.00831817 0.022553191
-0.000808471 -0.0083966432 0.022765957
-0.0007691395 -0.0084751165 0.022978723
-0.00073228352 -0.0085928272 0.023297872
-0.00069099833 -0.0086713005 0.023510639
-0.00065175456 -0.0087890103 0.023829788
-0.00060582324 -0.008828247 0.023936171
-0.00055945769 -0.0088674827 0.024042552
-0.00051265809 -0.0089067193 0.024148935
-0.00046338298 -0.0089067193 0.024148935
-0.0004141079 -0.0089067193 0.024148935
-0.00036483281 -0.0089067193 0.024148935
-0.00031416758 -0.0088674827 0.024042552
-0.00026510956 -0.0088674827 0.024042552
-0.00021700752 -0.0089067193 0.024148935
-0.00016847134 -0.0089459568 0.024255319
-0.000119501 -0.0089851934 0.024361702
-6.9791771e-05 -0.0089851934 0.024361702
-2.0082533e-05 -0.0089851934 0.024361702
2.975608e-05 -0.0090244301 0.024468085
8.0028833e-05 -0.0090636667 0.024574468
0.00013017221 -0.0090636667 0.024574468
0.00018109618 -0.0091029033 0.024680851
0.00023145664 -0.0091029033 0.024680851
0.00028060234 -0.0090636667 0.024574468
0.00032931392 -0.0090244301 0.024468085
0.00037924023 -0.0090244301 0.024468085
0.00042916654 -0.0090244301 0.024468085
0.00047909285 -0.0090244301 0.024468085
0.00052901916 -0.0090244301 0.024468085
0.00057894544 -0.0090244301 0.024468085
0.00062613754 -0.0089851934 0.024361702
0.00067289546 -0.0089459568 0.024255319
0.00072238763 -0.0089459568 0.024255319
0.00077526527 -0.0089851934 0.024361702
0.0008249745 -0.0089851934 0.024361702
0.00087468373 -0.0089851934 0.024361702
0.00092035631 -0.0089459568 0.024255319
0.00096559478 -0.0089067193 0.024148935
0.0010148699 -0.0089067193 0.024148935
0.0010594571 -0.0088674827 0.024042552
0.00111342 -0.0089067193 0.024148935
0.0011678172 -0.0089459568 0.024255319
0.0012226484 -0.0089851934 0.024361702
0.0012779138 -0.0090244301 0.024468085
0.0013336133 -0.0090636667 0.024574468
0.001389747 -0.0091029033 0.024680851
0.0014401075 -0.0091029033 0.024680851
0.0014904679 -0.0091029033 0.024680851
0.0015408284 -0.0091029033 0.024680851
0.0015911888 -0.0091029033 0.024680851
0.0016415493 -0.0091029033 0.024680851
0.001684617 -0.0090636667 0.024574468
0.0017347604 -0.0090636667 0.024574468
0.0017849037 -0.0090636667 0.024574468
0.0018350472 -0.0090636667 0.024574468
0.0018770294 -0.0090244301 0.024468085
0.0019185777 -0.0089851934 0.024361702
0.0019596918 -0.0089459568 0.024255319
0.0020003717 -0.0089067193 0.024148935
0.0020406176 -0.0088674827 0.024042552
0.0020804293 -0.008828247 0.023936171
0.00210088 -0.0087105371 0.023617022
0.0021200282 -0.0085928272 0.023297872
0.0021180788 -0.0083966432 0.022765957
0.0020836149 -0.0080827503 0.021914894
0.0020560096 -0.0078080934 0.021170212
0.0020464628 -0.0076119108 0.020638298
-0.0010431403 -0.0071015637 0.019361703
-0.0010146624 -0.0071796034 0.019574469
-0.00099061348 -0.0072966614 0.019893616
-0.00097034255 -0.0074527399 0.020319149
-0.00094833504 -0.0076088184 0.020744681
-0.00092459092 -0.0077648964 0.021170212
-0.0008946812 -0.0078819552 0.021489361
-0.00086768105 -0.0080380337 0.021914894
-0.00083494937 -0.0081550926 0.022234043
-0.00080091524 -0.0082721505 0.022553191
-0.00076201785 -0.0083501898 0.022765957
-0.00072559598 -0.0084672486 0.023085106
-0.00068787165 -0.0085843075 0.023404256
-0.0006459353 -0.0086623468 0.023617022
-0.00060313067 -0.008740386 0.023829788
-0.00055698224 -0.0087794056 0.023936171
-0.0005081413 -0.0087794056 0.023936171
-0.00046134164 -0.0088184252 0.024042552
-0.00041228364 -0.0088184252 0.024042552
-0.00036322561 -0.0088184252 0.024042552
-0.00031416758 -0.0088184252 0.024042552
-0.00026510956 -0.0088184252 0.024042552
-0.00021700752 -0.0088574449 0.024148935
-0.00016847134 -0.0088964645 0.024255319
-0.000119501 -0.0089354841 0.024361702
-7.0096539e-05 -0.0089745037 0.024468085
-2.0170228e-05 -0.0089745037 0.024468085
2.9885454e-05 -0.0090135233 0.024574468
8.0028833e-05 -0.0090135233 0.024574468
0.00013073573 -0.009052543 0.024680851
0.00018031559 -0.0090135233 0.024574468
0.00023045897 -0.0090135233 0.024574468
0.00027938763 -0.0089745037 0.024468085
0.00032931392 -0.0089745037 0.024468085
0.00037924023 -0.0089745037 0.024468085
0.00042916654 -0.0089745037 0.024468085
0.00047909285 -0.0089745037 0.024468085
0.00052901916 -0.0089745037 0.024468085
0.00057642831 -0.0089354841 0.024361702
0.00062340329 -0.0088964645 0.024255319
0.00067289546 -0.0088964645 0.024255319
0.00072238763 -0.0088964645 0.024255319
0.00077526527 -0.0089354841 0.024361702
0.00082857703 -0.0089745037 0.024468085
0.00087850331 -0.0089745037 0.024468085
0.00092439295 -0.0089354841 0.024361702
0.00096984848 -0.0088964645 0.024255319
0.0010148699 -0.0088574449 0.024148935
0.0010641449 -0.0088574449 0.024148935
0.0011183249 -0.0088964645 0.024255319
0.0011729392 -0.0089354841 0.024361702
0.0012279875 -0.0089745037 0.024468085
0.0012779138 -0.0089745037 0.024468085
0.0013336133 -0.0090135233 0.024574468
0.001389747 -0.009052543 0.024680851
0.0014401075 -0.009052543 0.024680851
0.0014904679 -0.009052543 0.024680851
0.0015408284 -0.009052543 0.024680851
0.0015911888 -0.009052543 0.024680851
0.0016415493 -0.009052543 0.024680851
0.0016919097 -0.009052543 0.024680851
0.0017422702 -0.009052543 0.024680851
0.0017926306 -0.009052543 0.024680851
0.0018429911 -0.009052543 0.024680851
0.0018851905 -0.0090135233 0.024574468
0.0019269558 -0.0089745037 0.024468085
0.0019682869 -0.0089354841 0.024361702
0.0020091839 -0.0088964645 0.024255319
0.0020496468 -0.0088574449 0.024148935
0.0020896755 -0.0088184252 0.024042552
0.0021198068 -0.008740386 0.023829788
0.0021393893 -0.0086233271 0.023510639
0.0021477717 -0.0084672486 0.023085106
0.0021139591 -0.0081550926 0.022234043
0.0020766731 -0.0078429356 0.021382978
0.0020675606 -0.007647838 0.020851064
-0.0010036335 -0.007062057 0.019361703
-0.00098001864 -0.007178464 0.01968085
-0.00095510157 -0.0072948718 0.02
-0.00092888199 -0.0074112792 0.020319149
-0.00090600626 -0.0075664897 0.020744681
-0.00087696477 -0.0076828972 0.021063831
-0.00084662082 -0.0077993046 0.021382978
-0.00081497448 -0.007915712 0.021702128
-0.00078580366 -0.0080709225 0.02212766
-0.00075133541 -0.0081873303 0.022446809
-0.0007155647 -0.0083037373 0.022765957
-0.0006784916 -0.0084201442 0.023085106
-0.00063720642 -0.0084977495 0.023297872
-0.00059505302 -0.0085753547 0.023510639
-0.00055203133 -0.00865296 0.023723405
-0.0005058829 -0.0086917626 0.023829788
-0.00045930035 -0.0087305652 0.023936171
-0.00041045938 -0.0087305652 0.023936171
-0.00036161844 -0.0087305652 0.023936171
-0.00031277747 -0.0087305652 0.023936171
-0.00026510956 -0.0087693669 0.024042552
-0.00021605153 -0.0087693669 0.024042552
-0.00016847134 -0.0088469721 0.024255319
-0.00012002284 -0.0089245774 0.024468085
-7.0401307e-05 -0.00896338 0.024574468
-2.0257925e-05 -0.00896338 0.024574468
2.9885454e-05 -0.00896338 0.024574468
8.0028833e-05 -0.00896338 0.024574468
0.00013017221 -0.00896338 0.024574468
0.00018031559 -0.00896338 0.024574468
0.00023045897 -0.00896338 0.024574468
0.00027938763 -0.0089245774 0.024468085
0.00032931392 -0.0089245774 0.024468085
0.00037924023 -0.0089245774 0.024468085
0.0004310325 -0.00896338 0.024574468
0.00048117587 -0.00896338 0.024574468
0.00052901916 -0.0089245774 0.024468085
0.00057894544 -0.0089245774 0.024468085
0.00062613754 -0.0088857748 0.024361702
0.00067584676 -0.0088857748 0.024361702
0.00072555605 -0.0088857748 0.024361702
0.00077865069 -0.0089245774 0.024468085
0.0008321795 -0.00896338 0.024574468
0.0008823229 -0.00896338 0.024574468
0.00092842965 -0.0089245774 0.024468085
0.00097410218 -0.0088857748 0.024361702
0.0010238114 -0.0088857748 0.024361702
0.0010735206 -0.0088857748 0.024361702
0.00112323 -0.0088857748 0.024361702
0.0011780611 -0.0089245774 0.024468085
0.0012279875 -0.0089245774 0.024468085
0.0012779138 -0.0089245774 0.024468085
0.0013336133 -0.00896338 0.024574468
0.0013837568 -0.00896338 0.024574468
0.0014401075 -0.0090021826 0.024680851
0.0014904679 -0.0090021826 0.024680851
0.0015408284 -0.0090021826 0.024680851
0.0015980473 -0.0090409853 0.024787234
0.0016486249 -0.0090409853 0.024787234
0.0016992025 -0.0090409853 0.024787234
0.0017497799 -0.0090409853 0.024787234
0.0017926306 -0.0090021826 0.024680851
0.0018429911 -0.0090021826 0.024680851
0.0018933516 -0.0090021826 0.024680851
0.0019353338 -0.00896338 0.024574468
0.0019768821 -0.0089245774 0.024468085
0.0020179963 -0.0088857748 0.024361702
0.0020586762 -0.0088469721 0.024255319
0.0020896755 -0.0087693669 0.024042552
0.0021292702 -0.0087305652 0.023936171
0.0021587503 -0.00865296 0.023723405
0.0021675667 -0.0084977495 0.023297872
0.0021341883 -0.0081873303 0.022446809
0.0020870047 -0.0078381067 0.021489361
0.0020464628 -0.0075276871 0.020638298
-0.00099260453 -0.0069453791 0.019148936
-0.00096942397 -0.0070611355 0.019468086
-0.0009449409 -0.0071768914 0.019787233
-0.00091429224 -0.0072540622 0.02
-0.00088742148 -0.0073698191 0.020319149
-0.00086367741 -0.0075241607 0.020744681
-0.00083398476 -0.0076399171 0.021063831
-0.00080298953 -0.007755673 0.021382978
-0.00077069202 -0.0078714294 0.021702128
-0.00073709205 -0.0079871863 0.022021277
-0.00070553343 -0.0081415279 0.022446809
-0.0006691115 -0.0082572838 0.022765957
-0.0006284776 -0.0083344551 0.022978723
-0.00058697537 -0.0084116254 0.023191489
-0.00054460485 -0.0084887967 0.023404256
-0.0005013661 -0.0085659679 0.023617022
-0.00045725901 -0.0086431382 0.023829788
-0.00041045938 -0.0086817238 0.023936171
-0.00036161844 -0.0086817238 0.023936171
-0.00031277747 -0.0086817238 0.023936171
-0.00026393653 -0.0086817238 0.023936171
-0.00021605153 -0.0087203085 0.024042552
-0.00016773242 -0.0087588942 0.024148935
-0.00012002284 -0.008874651 0.024468085
-7.0401307e-05 -0.0089132367 0.024574468
-2.0345622e-05 -0.0089518223 0.024680851
3.0014828e-05 -0.0089518223 0.024680851
8.0375277e-05 -0.0089518223 0.024680851
0.00013017221 -0.0089132367 0.024574468
0.00017953501 -0.008874651 0.024468085
0.00022946131 -0.008874651 0.024468085
0.00027938763 -0.008874651 0.024468085
0.00032931392 -0.008874651 0.024468085
0.00037924023 -0.008874651 0.024468085
0.0004310325 -0.0089132367 0.024574468
0.00048117587 -0.0089132367 0.024574468
0.00053131924 -0.0089132367 0.024574468
0.00058146263 -0.0089132367 0.024574468
0.00062887179 -0.008874651 0.024468085
0.00067879807 -0.008874651 0.024468085
0.00072872441 -0.008874651 0.024468085
0.00078203616 -0.0089132367 0.024574468
0.0008321795 -0.0089132367 0.024574468
0.0008823229 -0.0089132367 0.024574468
0.0009324663 -0.0089132367 0.024574468
0.00098260969 -0.0089132367 0.024574468
0.001032753 -0.0089132367 0.024574468
0.0010782086 -0.008874651 0.024468085
0.0011281349 -0.008874651 0.024468085
0.0011780611 -0.008874651 0.024468085
0.0012279875 -0.008874651 0.024468085
0.0012779138 -0.008874651 0.024468085
0.0013278401 -0.008874651 0.024468085
0.0013777664 -0.008874651 0.024468085
0.0014339001 -0.0089132367 0.024574468
0.0014904679 -0.0089518223 0.024680851
0.0015408284 -0.0089518223 0.024680851
0.0015980473 -0.008990407 0.024787234
0.0016486249 -0.008990407 0.024787234
0.0016992025 -0.008990407 0.024787234
0.0017497799 -0.008990407 0.024787234
0.0018003575 -0.008990407 0.024787234
0.0018429911 -0.0089518223 0.024680851
0.0018933516 -0.0089518223 0.024680851
0.0019353338 -0.0089132367 0.024574468
0.0019768821 -0.008874651 0.024468085
0.0020179963 -0.0088360654 0.024361702
0.0020586762 -0.0087974798 0.024255319
0.0020989219 -0.0087588942 0.024148935
0.0021292702 -0.0086817238 0.023936171
0.0021684307 -0.0086431382 0.023829788
0.0021774643 -0.0084887967 0.023404256
0.0021544173 -0.0082186982 0.022659574
0.0020870047 -0.0077942587 0.021489361
0.0020253654 -0.0074084043 0.020425532
-0.00096412655 -0.0069830432 0.019361703
-0.00093478028 -0.0070597799 0.019574469
-0.00090942899 -0.0071748844 0.019893616
-0.00088277529 -0.0072899899 0.020212766
-0.00085039006 -0.0073667266 0.020425532
-0.00082134857 -0.0074818321 0.020744681
-0.00078700972 -0.0075585688 0.020957448
-0.00075558037 -0.0076736733 0.021276595
-0.00072284869 -0.0077887787 0.021595744
-0.00068881462 -0.0079038842 0.021914894
-0.00065347808 -0.0080189891 0.022234043
-0.0006168391 -0.0081340941 0.022553191
-0.00057889771 -0.008249199 0.02287234
-0.00053965388 -0.008364304 0.023191489
-0.00049684924 -0.0084410412 0.023404256
-0.00045521767 -0.0085561462 0.023723405
-0.00040863513 -0.0085945148 0.023829788
-0.00036001124 -0.0085945148 0.023829788
-0.00031138735 -0.0085945148 0.023829788
-0.00026276347 -0.0085945148 0.023829788
-0.00021509557 -0.0086328834 0.023936171
-0.00016773242 -0.0087096198 0.024148935
-0.000119501 -0.0087863561 0.024361702
-7.0401307e-05 -0.0088630933 0.024574468
-2.0345622e-05 -0.008901461 0.024680851
3.0014828e-05 -0.008901461 0.024680851
8.0028833e-05 -0.0088630933 0.024574468
0.00013017221 -0.0088630933 0.024574468
0.00017953501 -0.0088247247 0.024468085
0.00022946131 -0.0088247247 0.024468085
0.0002781729 -0.0087863561 0.024361702
0.00032788212 -0.0087863561 0.024361702
0.00037924023 -0.0088247247 0.024468085
0.0004310325 -0.0088630933 0.024574468
0.00048325889 -0.008901461 0.024680851
0.00053591945 -0.0089398297 0.024787234
0.00058649696 -0.0089398297 0.024787234
0.00063434022 -0.008901461 0.024680851
0.00068470067 -0.008901461 0.024680851
0.00073506113 -0.008901461 0.024680851
0.00078542158 -0.008901461 0.024680851
0.0008321795 -0.0088630933 0.024574468
0.0008823229 -0.0088630933 0.024574468
0.00093650294 -0.008901461 0.024680851
0.00098686339 -0.008901461 0.024680851
0.0010372238 -0.008901461 0.024680851
0.0010828964 -0.0088630933 0.024574468
0.0011330398 -0.0088630933 0.024574468
0.0011780611 -0.0088247247 0.024468085
0.0012279875 -0.0088247247 0.024468085
0.0012779138 -0.0088247247 0.024468085
0.0013278401 -0.0088247247 0.024468085
0.0013837568 -0.0088630933 0.024574468
0.0014339001 -0.0088630933 0.024574468
0.0014904679 -0.008901461 0.024680851
0.0015474699 -0.0089398297 0.024787234
0.0015980473 -0.0089398297 0.024787234
0.0016486249 -0.0089398297 0.024787234
0.0016992025 -0.0089398297 0.024787234
0.0017497799 -0.0089398297 0.024787234
0.0018003575 -0.0089398297 0.024787234
0.0018429911 -0.008901461 0.024680851
0.0018851905 -0.0088630933 0.024574468
0.0019353338 -0.0088630933 0.024574468
0.0019768821 -0.0088247247 0.024468085
0.0020179963 -0.0087863561 0.024361702
0.0020586762 -0.0087479874 0.024255319
0.0020989219 -0.0087096198 0.024148935
0.0021387336 -0.0086712511 0.024042552
0.0021684307 -0.0085945148 0.023829788
0.0021873619 -0.0084794099 0.023510639
0.002164532 -0.0082108304 0.022765957
0.0020973366 -0.0077887787 0.021595744
0.0020253654 -0.0073667266 0.020425532
0.0020024478 -0.0071365163 0.019787233
-0.00095882913 -0.0069053848 0.01925532
-0.00092969998 -0.0069816876 0.019468086
-0.00090456568 -0.0070961411 0.019787233
-0.0008734829 -0.0071724439 0.02
-0.00084596092 -0.0072868979 0.020319149
-0.00081292447 -0.0073632007 0.020531915
-0.00077901973 -0.007439503 0.020744681
-0.00074424676 -0.0075158058 0.020957448
-0.00071216619 -0.0076302593 0.021276595
-0.00067878334 -0.0077447132 0.021595744
-0.0006409713 -0.007821016 0.021808511
-0.00060520065 -0.00793547 0.02212766
-0.00056812755 -0.0080499239 0.022446809
-0.000529752 -0.008164377 0.022765957
-0.00049007405 -0.0082788318 0.023085106
-0.00044909367 -0.0083932858 0.023404256
-0.00040498658 -0.0084695881 0.023617022
-0.00035679687 -0.0084695881 0.023617022
-0.00030860712 -0.0084695881 0.023617022
-0.00026159041 -0.0085077398 0.023723405
-0.00021413958 -0.0085458905 0.023829788
-0.00016699352 -0.0086221928 0.024042552
-0.00011897917 -0.008698496 0.024255319
-7.0096539e-05 -0.0087747984 0.024468085
-2.0257925e-05 -0.00881295 0.024574468
2.9885454e-05 -0.00881295 0.024574468
8.0028833e-05 -0.00881295 0.024574468
0.0001296087 -0.0087747984 0.024468085
0.00017875442 -0.0087366467 0.024361702
0.00022846366 -0.0087366467 0.024361702
0.0002781729 -0.0087366467 0.024361702
0.00032931392 -0.0087747984 0.024468085
0.00038088911 -0.00881295 0.024574468
0.00043289844 -0.0088511007 0.024680851
0.00048534191 -0.0088892523 0.024787234
0.00053591945 -0.0088892523 0.024787234
0.00058649696 -0.0088892523 0.024787234
0.00063707447 -0.0088892523 0.024787234
0.00068765198 -0.0088892523 0.024787234
0.00073822949 -0.0088892523 0.024787234
0.00078542158 -0.0088511007 0.024680851
0.00083578203 -0.0088511007 0.024680851
0.00088614249 -0.0088511007 0.024680851
0.00093650294 -0.0088511007 0.024680851
0.00098686339 -0.0088511007 0.024680851
0.0010372238 -0.0088511007 0.024680851
0.0010828964 -0.00881295 0.024574468
0.0011330398 -0.00881295 0.024574468
0.0011780611 -0.0087747984 0.024468085
0.0012333265 -0.00881295 0.024574468
0.00128347 -0.00881295 0.024574468
0.0013336133 -0.00881295 0.024574468
0.0013837568 -0.00881295 0.024574468
0.0014401075 -0.0088511007 0.024680851
0.0014968923 -0.0088892523 0.024787234
0.0015474699 -0.0088892523 0.024787234
0.0015980473 -0.0088892523 0.024787234
0.0016486249 -0.0088892523 0.024787234
0.0016992025 -0.0088892523 0.024787234
0.0017497799 -0.0088892523 0.024787234
0.0018003575 -0.0088892523 0.024787234
0.0018429911 -0.0088511007 0.024680851
0.0018851905 -0.00881295 0.024574468
0.0019269558 -0.0087747984 0.024468085
0.0019682869 -0.0087366467 0.024361702
0.0020179963 -0.0087366467 0.024361702
0.0020677054 -0.0087366467 0.024361702
0.0021081683 -0.008698496 0.024255319
0.002148197 -0.0086603444 0.024148935
0.0021877915 -0.0086221928 0.024042552
0.0021972596 -0.0084695881 0.023617022
0.0021746466 -0.0082025286 0.02287234
0.0021179998 -0.007821016 0.021808511
0.0020464628 -0.0074013518 0.020638298
0.0020239796 -0.0071724439 0.02
-0.00092461961 -0.0069040293 0.019361703
-0.00089970243 -0.0070178318 0.01968085
-0.0008734829 -0.0071316343 0.02
-0.00084153179 -0.0072075031 0.020212766
-0.00080871244 -0.0072833714 0.020425532
-0.00077502476 -0.0073592402 0.020638298
-0.00073669094 -0.0073971744 0.020744681
-0.00070148375 -0.0074730427 0.020957448
-0.00066540827 -0.0075489106 0.021170212
-0.00063159125 -0.0076627135 0.021489361
-0.00059356214 -0.0077385823 0.021702128
-0.00055735733 -0.0078523848 0.022021277
-0.00051985012 -0.0079661878 0.022340426
-0.00048104039 -0.0080799898 0.022659574
-0.0004409283 -0.0081937928 0.022978723
-0.00039586527 -0.0082317274 0.023085106
-0.00035197526 -0.0083075957 0.023297872
-0.00030443675 -0.0083075957 0.023297872
-0.00025924432 -0.0083834641 0.023510639
-0.00021318361 -0.0084593324 0.023723405
-0.00016625461 -0.0085352017 0.023936171
-0.00011845733 -0.0086110691 0.024148935
-6.9487003e-05 -0.0086490037 0.024255319
-2.0082533e-05 -0.0086869374 0.024361702
2.975608e-05 -0.008724872 0.024468085
7.9682388e-05 -0.008724872 0.024468085
0.00012904518 -0.0086869374 0.024361702
0.00017875442 -0.0086869374 0.024361702
0.00022846366 -0.0086869374 0.024361702
0.00027938763 -0.008724872 0.024468085
0.00033074574 -0.0087628067 0.024574468
0.00038253798 -0.0088007404 0.024680851
0.00043476437 -0.008838675 0.024787234
0.00048534191 -0.008838675 0.024787234
0.00053591945 -0.008838675 0.024787234
0.00058649696 -0.008838675 0.024787234
0.00063707447 -0.008838675 0.024787234
0.00068765198 -0.008838675 0.024787234
0.00073822949 -0.008838675 0.024787234
0.00078880705 -0.008838675 0.024787234
0.00083578203 -0.0088007404 0.024680851
0.00088614249 -0.0088007404 0.024680851
0.00093650294 -0.0088007404 0.024680851
0.00098686339 -0.0088007404 0.024680851
0.001032753 -0.0087628067 0.024574468
0.0010782086 -0.008724872 0.024468085
0.0011281349 -0.008724872 0.024468085
0.0011831832 -0.0087628067 0.024574468
0.0012333265 -0.0087628067 0.024574468
0.00128347 -0.0087628067 0.024574468
0.0013393866 -0.0088007404 0.024680851
0.001389747 -0.0088007404 0.024680851
0.0014463149 -0.008838675 0.024787234
0.0014968923 -0.008838675 0.024787234
0.0015474699 -0.008838675 0.024787234
0.0015980473 -0.008838675 0.024787234
0.0016486249 -0.008838675 0.024787234
0.0016992025 -0.008838675 0.024787234
0.0017497799 -0.008838675 0.024787234
0.0018003575 -0.008838675 0.024787234
0.0018429911 -0.0088007404 0.024680851
0.0018770294 -0.008724872 0.024468085
0.0019185777 -0.0086869374 0.024361702
0.0019682869 -0.0086869374 0.024361702
0.0020179963 -0.0086869374 0.024361702
0.0020767348 -0.008724872 0.024468085
0.0021174147 -0.0086869374 0.024361702
0.0021671238 -0.0086869374 0.024361702
0.0021974721 -0.0086110691 0.024148935
0.0022170546 -0.008497267 0.023829788
0.0021948761 -0.0082317274 0.023085106
0.0021386633 -0.0078523848 0.022021277
0.0020781094 -0.0074730427 0.020957448
0.0020562771 -0.0072454372 0.020319149
-0.00088997599 -0.0069022398 0.019468086
-0.00086419052 -0.0070153908 0.019787233
-0.00083710271 -0.0071285423 0.020106383
-0.00080450036 -0.0072039766 0.020319149
-0.00076703483 -0.0072416938 0.020425532
-0.00073291303 -0.0073171281 0.020638298
-0.0006943621 -0.0073548453 0.020744681
-0.00065872079 -0.0074302801 0.020957448
-0.00062221114 -0.0075057135 0.021170212
-0.00058483327 -0.0075811483 0.021382978
-0.00054658717 -0.0076565826 0.021595744
-0.00050994818 -0.0077697341 0.021914894
-0.0004697484 -0.0078451689 0.02212766
-0.00043072167 -0.00795832 0.022446809
-0.00038674392 -0.0079960367 0.022553191
-0.00034393929 -0.008071471 0.022765957
-0.00029887626 -0.0081091886 0.02287234
-0.00025455211 -0.008184623 0.023085106
-0.00021031566 -0.008297774 0.023404256
-0.00016403789 -0.0083732083 0.023617022
-0.00011689182 -0.0084486427 0.023829788
-6.8877467e-05 -0.008524077 0.024042552
-1.9907138e-05 -0.0085617937 0.024148935
2.9497331e-05 -0.0085995113 0.024255319
7.9335943e-05 -0.008637228 0.024361702
0.00012904518 -0.008637228 0.024361702
0.00017875442 -0.008637228 0.024361702
0.00022946131 -0.0086749457 0.024468085
0.00028060234 -0.0087126633 0.024574468
0.00033217753 -0.00875038 0.024680851
0.00038418686 -0.0087880976 0.024787234
0.00043476437 -0.0087880976 0.024787234
0.00048534191 -0.0087880976 0.024787234
0.00053591945 -0.0087880976 0.024787234
0.00058397977 -0.00875038 0.024680851
0.00063434022 -0.00875038 0.024680851
0.00068765198 -0.0087880976 0.024787234
0.00073822949 -0.0087880976 0.024787234
0.00078880705 -0.0087880976 0.024787234
0.00083938456 -0.0087880976 0.024787234
0.00088996207 -0.0087880976 0.024787234
0.00093650294 -0.00875038 0.024680851
0.00098260969 -0.0087126633 0.024574468
0.0010282822 -0.0086749457 0.024468085
0.0010782086 -0.0086749457 0.024468085
0.0011281349 -0.0086749457 0.024468085
0.0011831832 -0.0087126633 0.024574468
0.0012386657 -0.00875038 0.024680851
0.00128347 -0.0087126633 0.024574468
0.0013336133 -0.0087126633 0.024574468
0.001389747 -0.00875038 0.024680851
0.0014463149 -0.0087880976 0.024787234
0.0014968923 -0.0087880976 0.024787234
0.0015474699 -0.0087880976 0.024787234
0.0015911888 -0.00875038 0.024680851
0.0016415493 -0.00875038 0.024680851
0.0016919097 -0.00875038 0.024680851
0.0017422702 -0.00875038 0.024680851
0.0017926306 -0.00875038 0.024680851
0.0018429911 -0.00875038 0.024680851
0.0018770294 -0.0086749457 0.024468085
0.0019185777 -0.008637228 0.024361702
0.0019682869 -0.008637228 0.024361702
0.0020179963 -0.008637228 0.024361702
0.0020767348 -0.0086749457 0.024468085
0.0021266611 -0.0086749457 0.024468085
0.0021765872 -0.0086749457 0.024468085
0.0022071525 -0.0085995113 0.024255319
0.0022269522 -0.0084863603 0.023936171
0.0022151053 -0.0082600573 0.023297872
0.0021593268 -0.0078828856 0.022234043
0.002088658 -0.0074679973 0.021063831
0.0020562771 -0.0072039766 0.020319149
-0.00087538618 -0.0067500155 0.019148936
-0.00085489819 -0.0069000158 0.019574469
-0.00082824443 -0.0070125158 0.019893616
-0.00080028834 -0.0071250158 0.020212766
-0.00076303986 -0.007162516 0.020319149
-0.00072913512 -0.0072375163 0.020531915
-0.00069080124 -0.0072750165 0.020638298
-0.00065203325 -0.0073125167 0.020744681
-0.00061595783 -0.007387517 0.020957448
-0.0005761045 -0.0074250172 0.021063831
-0.00053850951 -0.0075000166 0.021276595
-0.0005000463 -0.0075750169 0.021489361
-0.00046071477 -0.0076500173 0.021702128
-0.00042051499 -0.0077250176 0.021914894
-0.00037944689 -0.0078000179 0.02212766
-0.00033590334 -0.0078375181 0.022234043
-0.00029192565 -0.0078750178 0.022340426
-0.00024868685 -0.0079500172 0.022553191
-0.00020553576 -0.0080625182 0.02287234
-0.00016108224 -0.0081750182 0.023191489
-0.0001153263 -0.0082875192 0.023510639
-6.7963163e-05 -0.0083625196 0.023723405
-1.9731746e-05 -0.008437519 0.023936171
2.9238581e-05 -0.0084750187 0.024042552
7.8643054e-05 -0.0085125193 0.024148935
0.00012848167 -0.008550019 0.024255319
0.00017875442 -0.0085875196 0.024361702
0.00022946131 -0.0086250193 0.024468085
0.00028060234 -0.008662519 0.024574468
0.00033217753 -0.0087000197 0.024680851
0.00038418686 -0.0087375194 0.024787234
0.00043476437 -0.0087375194 0.024787234
0.00048534191 -0.0087375194 0.024787234
0.00053361931 -0.0087000197 0.024680851
0.00058397977 -0.0087000197 0.024680851
0.00063434022 -0.0087000197 0.024680851
0.00068765198 -0.0087375194 0.024787234
0.00073822949 -0.0087375194 0.024787234
0.00078880705 -0.0087375194 0.024787234
0.00083938456 -0.0087375194 0.024787234
0.00088996207 -0.0087375194 0.024787234
0.00093650294 -0.0087000197 0.024680851
0.00098260969 -0.008662519 0.024574468
0.0010282822 -0.0086250193 0.024468085
0.0010782086 -0.0086250193 0.024468085
0.0011330398 -0.008662519 0.024574468
0.0011883052 -0.0087000197 0.024680851
0.0012386657 -0.0087000197 0.024680851
0.00128347 -0.008662519 0.024574468
0.0013336133 -0.008662519 0.024574468
0.0013837568 -0.008662519 0.024574468
0.0014401075 -0.0087000197 0.024680851
0.0014968923 -0.0087375194 0.024787234
0.0015474699 -0.0087375194 0.024787234
0.0015911888 -0.0087000197 0.024680851
0.0016415493 -0.0087000197 0.024680851
0.0016919097 -0.0087000197 0.024680851
0.0017422702 -0.0087000197 0.024680851
0.0017926306 -0.0087000197 0.024680851
0.0018429911 -0.0087000197 0.024680851
0.0018770294 -0.0086250193 0.024468085
0.0019185777 -0.0085875196 0.024361702
0.0019682869 -0.0085875196 0.024361702
0.0020268084 -0.0086250193 0.024468085
0.0020767348 -0.0086250193 0.024468085
0.0021359073 -0.008662519 0.024574468
0.0021765872 -0.0086250193 0.024468085
0.0022168332 -0.0085875196 0.024361702
0.0022368496 -0.0084750187 0.024042552
0.00222522 -0.0082500186 0.023404256
0.0021799903 -0.0079125185 0.022446809
0.0020992067 -0.0074625164 0.021170212
0.0020455113 -0.0071250158 0.020212766
-0.0008409596 -0.0067482255 0.01925532
-0.0008238153 -0.0069346405 0.019787233
-0.00079607626 -0.0070464895 0.020106383
-0.00076303986 -0.0071210554 0.020319149
-0.00072535721 -0.0071583386 0.020425532
-0.00068724045 -0.0071956217 0.020531915
-0.00064868951 -0.0072329049 0.020638298
-0.00060970447 -0.0072701881 0.020744681
-0.00057319488 -0.0073447539 0.020957448
-0.00053312443 -0.0073820371 0.021063831
-0.00049509533 -0.0074566025 0.021276595
-0.00045619794 -0.0075311684 0.021489361
-0.00041439096 -0.0075684516 0.021595744
-0.00037214984 -0.0076057347 0.021702128
-0.00032947457 -0.0076430179 0.021808511
-0.00028636516 -0.0076803011 0.021914894
-0.00024399465 -0.007754867 0.02212766
-0.00020171185 -0.007866716 0.022446809
-0.0001581266 -0.0079785651 0.022765957
-0.00011323894 -0.0080904141 0.023085106
-6.7048859e-05 -0.0082022632 0.023404256
-1.9468656e-05 -0.0082768295 0.023617022
2.8979835e-05 -0.0083513949 0.023829788
7.8296602e-05 -0.0084259612 0.024042552
0.00012791815 -0.008463244 0.024148935
0.00017797382 -0.0085005267 0.024255319
0.00022846366 -0.0085378103 0.024361702
0.00028060234 -0.0086123757 0.024574468
0.00033217753 -0.0086496593 0.024680851
0.00038418686 -0.008686942 0.024787234
0.00043476437 -0.008686942 0.024787234
0.00048325889 -0.0086496593 0.024680851
0.00053361931 -0.0086496593 0.024680851
0.00058397977 -0.0086496593 0.024680851
0.00063707447 -0.008686942 0.024787234
0.00069060328 -0.0087242257 0.024893617
0.0007413979 -0.0087242257 0.024893617
0.00079219247 -0.0087242257 0.024893617
0.00083938456 -0.008686942 0.024787234
0.00088614249 -0.0086496593 0.024680851
0.00093650294 -0.0086496593 0.024680851
0.00098260969 -0.0086123757 0.024574468
0.0010282822 -0.008575093 0.024468085
0.0010782086 -0.008575093 0.024468085
0.0011330398 -0.0086123757 0.024574468
0.0011883052 -0.0086496593 0.024680851
0.0012386657 -0.0086496593 0.024680851
0.00128347 -0.0086123757 0.024574468
0.0013336133 -0.0086123757 0.024574468
0.0013837568 -0.0086123757 0.024574468
0.0014401075 -0.0086496593 0.024680851
0.0014904679 -0.0086496593 0.024680851
0.0015474699 -0.008686942 0.024787234
0.0015980473 -0.008686942 0.024787234
0.0016486249 -0.008686942 0.024787234
0.0016919097 -0.0086496593 0.024680851
0.0017497799 -0.008686942 0.024787234
0.0017926306 -0.0086496593 0.024680851
0.0018429911 -0.0086496593 0.024680851
0.0018851905 -0.0086123757 0.024574468
0.0019269558 -0.008575093 0.024468085
0.0019768821 -0.008575093 0.024468085
0.0020268084 -0.008575093 0.024468085
0.0020767348 -0.008575093 0.024468085
0.0021359073 -0.0086123757 0.024574468
0.0021765872 -0.008575093 0.024468085
0.0022168332 -0.0085378103 0.024361702
0.0022368496 -0.0084259612 0.024042552
0.00222522 -0.0082022632 0.023404256
0.0021903217 -0.0079039987 0.022553191
0.0021203044 -0.0074938857 0.021382978
0.0020455113 -0.0070837727 0.020212766
0.0020318402 -0.0068973573 0.01968085
-0.00081052806 -0.0067830677 0.019468086
-0.00078765216 -0.006931331 0.019893616
-0.00075904484 -0.0070425291 0.020212766
-0.00072535721 -0.0071166609 0.020425532
-0.00068724045 -0.0071537271 0.020531915
-0.00064868951 -0.0071907928 0.020638298
-0.00060970447 -0.007227859 0.020744681
-0.00057028525 -0.0072649252 0.020851064
-0.00053043186 -0.0073019909 0.020957448
-0.00049261982 -0.0073761223 0.021170212
-0.00045168112 -0.0074131885 0.021276595
-0.00041030828 -0.0074502542 0.021382978
-0.00036667704 -0.0074502542 0.021382978
-0.00032465297 -0.0074873203 0.021489361
-0.00028219479 -0.0075243865 0.021595744
-0.00023930243 -0.0075614522 0.021702128
-0.00019693194 -0.0076355841 0.021914894
-0.00015443207 -0.0077467822 0.022234043
-0.00011115159 -0.0078950459 0.022659574
-6.5829794e-05 -0.008006244 0.022978723
-1.9205565e-05 -0.0081174411 0.023297872
2.8591712e-05 -0.0081915734 0.023510639
7.7257275e-05 -0.0082657058 0.023723405
0.00012679113 -0.0083398372 0.023936171
0.00017719324 -0.0084139686 0.024148935
0.00022746599 -0.0084510343 0.024255319
0.00027938763 -0.0085251667 0.024468085
0.00033074574 -0.0085622324 0.024574468
0.00038253798 -0.008599299 0.024680851
0.00043289844 -0.008599299 0.024680851
0.00048117587 -0.0085622324 0.024574468
0.00053131924 -0.0085622324 0.024574468
0.00058397977 -0.008599299 0.024680851
0.00063707447 -0.0086363647 0.024787234
0.00069060328 -0.0086734304 0.024893617
0.0007413979 -0.0086734304 0.024893617
0.00079219247 -0.0086734304 0.024893617
0.00083938456 -0.0086363647 0.024787234
0.00088614249 -0.008599299 0.024680851
0.00093650294 -0.008599299 0.024680851
0.00098260969 -0.0085622324 0.024574468
0.001032753 -0.0085622324 0.024574468
0.0010828964 -0.0085622324 0.024574468
0.0011379448 -0.008599299 0.024680851
0.0011934272 -0.0086363647 0.024787234
0.0012440047 -0.0086363647 0.024787234
0.00128347 -0.0085622324 0.024574468
0.0013336133 -0.0085622324 0.024574468
0.0013837568 -0.0085622324 0.024574468
0.0014339001 -0.0085622324 0.024574468
0.0014904679 -0.008599299 0.024680851
0.0015474699 -0.0086363647 0.024787234
0.0016049059 -0.0086734304 0.024893617
0.0016557005 -0.0086734304 0.024893617
0.0017064952 -0.0086734304 0.024893617
0.0017497799 -0.0086363647 0.024787234
0.0018003575 -0.0086363647 0.024787234
0.0018429911 -0.008599299 0.024680851
0.0018851905 -0.0085622324 0.024574468
0.0019269558 -0.0085251667 0.024468085
0.0019768821 -0.0085251667 0.024468085
0.0020268084 -0.0085251667 0.024468085
0.002085764 -0.0085622324 0.024574468
0.0021359073 -0.0085622324 0.024574468
0.0021765872 -0.0085251667 0.024468085
0.0022168332 -0.008488101 0.024361702
0.0022368496 -0.0083769029 0.024042552
0.0022353346 -0.0081915734 0.023510639
0.0022006535 -0.0078950459 0.022659574
0.0021414019 -0.0075243865 0.021595744
0.0020778088 -0.0071537271 0.020531915
0.0020647889 -0.0069683972 0.02
-0.0007972407 -0.006632797 0.019148936
-0.00077922811 -0.006817041 0.01968085
-0.00075504987 -0.0069644367 0.020106383
-0.0007215793 -0.0070381346 0.020319149
-0.00068724045 -0.0071118325 0.020531915
-0.00064868951 -0.0071486812 0.020638298
-0.00060970447 -0.0071855304 0.020744681
-0.00057028525 -0.0072223791 0.020851064
-0.00053043186 -0.0072592283 0.020957448
-0.00049014442 -0.007296077 0.021063831
-0.00044942272 -0.0073329252 0.021170212
-0.00040622562 -0.0073329252 0.021170212
-0.00036485278 -0.0073697739 0.021276595
-0.00032143859 -0.0073697739 0.021276595
-0.00027941453 -0.0074066231 0.021382978
-0.00023695633 -0.0074434718 0.021489361
-0.00019406399 -0.007480321 0.021595744
-0.00015221533 -0.0075908676 0.021914894
-0.00010906424 -0.0077014146 0.022234043
-6.4610722e-05 -0.0078119608 0.022553191
-1.8854778e-05 -0.0079225069 0.02287234
2.8203589e-05 -0.0080330539 0.023191489
7.6564385e-05 -0.008143601 0.023510639
0.00012566408 -0.0082172984 0.023723405
0.00017563207 -0.0082909968 0.023936171
0.00022646833 -0.0083646933 0.024148935
0.0002781729 -0.0084383916 0.024361702
0.00032931392 -0.0084752403 0.024468085
0.00038088911 -0.008512089 0.024574468
0.0004310325 -0.008512089 0.024574468
0.00048117587 -0.008512089 0.024574468
0.00053131924 -0.008512089 0.024574468
0.00058397977 -0.0085489387 0.024680851
0.00063707447 -0.0085857874 0.024787234
0.00069060328 -0.0086226361 0.024893617
0.0007413979 -0.0086226361 0.024893617
0.00079219247 -0.0086226361 0.024893617
0.00083938456 -0.0085857874 0.024787234
0.00088614249 -0.0085489387 0.024680851
0.0009324663 -0.008512089 0.024574468
0.00098260969 -0.008512089 0.024574468
0.001032753 -0.008512089 0.024574468
0.0010875843 -0.0085489387 0.024680851
0.0011428497 -0.0085857874 0.024787234
0.0011934272 -0.0085857874 0.024787234
0.0012440047 -0.0085857874 0.024787234
0.0012890261 -0.0085489387 0.024680851
0.0013336133 -0.008512089 0.024574468
0.0013837568 -0.008512089 0.024574468
0.0014339001 -0.008512089 0.024574468
0.0014904679 -0.0085489387 0.024680851
0.0015474699 -0.0085857874 0.024787234
0.0016117645 -0.0086594848 0.025
0.0016627762 -0.0086594848 0.025
0.0017137879 -0.0086594848 0.025
0.0017572897 -0.0086226361 0.024893617
0.0018003575 -0.0085857874 0.024787234
0.0018429911 -0.0085489387 0.024680851
0.0018851905 -0.008512089 0.024574468
0.0019353338 -0.008512089 0.024574468
0.0019768821 -0.0084752403 0.024468085
0.0020356206 -0.008512089 0.024574468
0.002085764 -0.008512089 0.024574468
0.0021359073 -0.008512089 0.024574468
0.0021765872 -0.0084752403 0.024468085
0.0022168332 -0.0084383916 0.024361702
0.0022368496 -0.0083278446 0.024042552
0.0022353346 -0.008143601 0.023510639
0.002221317 -0.0079225069 0.02287234
0.0021730482 -0.0075908676 0.021914894
0.0021208723 -0.0072592283 0.020957448
0.0021087206 -0.0070749833 0.020425532
-0.00076659198 -0.0066669881 0.019361703
-0.00074705994 -0.0068501467 0.019893616
-0.00071780139 -0.0069600423 0.020212766
-0.00068724045 -0.0070699379 0.020531915
-0.00064868951 -0.0071065696 0.020638298
-0.00061283115 -0.007179833 0.020851064
-0.00057028525 -0.007179833 0.020851064
-0.00053043186 -0.0072164652 0.020957448
-0.00049014442 -0.0072530969 0.021063831
-0.00044716435 -0.0072530969 0.021063831
-0.00040622562 -0.0072897281 0.021170212
-0.00036302849 -0.0072897281 0.021170212
-0.00031983139 -0.0072897281 0.021170212
-0.00027802441 -0.0073263599 0.021276595
-0.00023461023 -0.0073263599 0.021276595
-0.00019310802 -0.0073996237 0.021489361
-0.0001499986 -0.0074362555 0.021595744
-0.00010749872 -0.0075461511 0.021914894
-6.339165e-05 -0.0076194149 0.02212766
-1.8503993e-05 -0.0077293101 0.022446809
2.7686092e-05 -0.0078392047 0.022765957
7.5178599e-05 -0.0079491008 0.023085106
0.00012397354 -0.0080589959 0.023404256
0.0001740709 -0.008168892 0.023723405
0.00022447303 -0.0082421554 0.023936171
0.00027574343 -0.0083154188 0.024148935
0.00032788212 -0.0083886823 0.024361702
0.00037924023 -0.008425314 0.024468085
0.00042916654 -0.008425314 0.024468085
0.00048117587 -0.0084619457 0.024574468
0.00053131924 -0.0084619457 0.024574468
0.00058397977 -0.0084985774 0.024680851
0.00063707447 -0.00853521 0.024787234
0.00069060328 -0.0085718418 0.024893617
0.0007413979 -0.0085718418 0.024893617
0.00079219247 -0.0085718418 0.024893617
0.00083938456 -0.00853521 0.024787234
0.00088614249 -0.0084985774 0.024680851
0.0009324663 -0.0084619457 0.024574468
0.00098260969 -0.0084619457 0.024574468
0.0010372238 -0.0084985774 0.024680851
0.0010922721 -0.00853521 0.024787234
0.0011477546 -0.0085718418 0.024893617
0.0011985492 -0.0085718418 0.024893617
0.0012493439 -0.0085718418 0.024893617
0.0012945823 -0.00853521 0.024787234
0.0013393866 -0.0084985774 0.024680851
0.0013837568 -0.0084619457 0.024574468
0.0014339001 -0.0084619457 0.024574468
0.0014904679 -0.0084985774 0.024680851
0.0015541114 -0.0085718418 0.024893617
0.0016117645 -0.0086084735 0.025
0.0016698518 -0.0086451052 0.025106383
0.0017137879 -0.0086084735 0.025
0.0017647996 -0.0086084735 0.025
0.0018003575 -0.00853521 0.024787234
0.0018509349 -0.00853521 0.024787234
0.0018933516 -0.0084985774 0.024680851
0.0019353338 -0.0084619457 0.024574468
0.0019854773 -0.0084619457 0.024574468
0.0020356206 -0.0084619457 0.024574468
0.002085764 -0.0084619457 0.024574468
0.0021359073 -0.0084619457 0.024574468
0.0021765872 -0.008425314 0.024468085
0.0022168332 -0.0083886823 0.024361702
0.0022368496 -0.0082787871 0.024042552
0.0022555639 -0.008168892 0.023723405
