# .PCD v0.7 - Point Cloud Data file format
VERSION 0.7
FIELDS x y z
SIZE 4 4 4
TYPE F F F
COUNT 1 1 1
WIDTH 1268
HEIGHT 1
VIEWPOINT 0 0 0 1 0 0 0
POINTS 1268
DATA ascii
-0.014544813 -0.013567012 0.045000002
-0.014487159 -0.013599084 0.045106381
-0.014395121 -0.013599084 0.045106381
-0.014303083 -0.013599084 0.045106381
-0.014211045 -0.013599084 0.045106381
-0.014085708 -0.013567012 0.045000002
-0.013960805 -0.013534938 0.044893619
-0.013869201 -0.013534938 0.044893619
-0.013744948 -0.013502865 0.044787236
-0.013653561 -0.013502865 0.044787236
-0.013562175 -0.013502865 0.044787236
-0.013438791 -0.013470791 0.044680852
-0.013347621 -0.013470791 0.044680852
-0.013256451 -0.013470791 0.044680852
-0.013196628 -0.013502865 0.044787236
-0.013167499 -0.013567012 0.045000002
-0.013075678 -0.013567012 0.045000002
-0.012953161 -0.013534938 0.044893619
-0.012739647 -0.013406645 0.044468086
-0.012527869 -0.013278351 0.044042554
-0.012287784 -0.013117985 0.043510638
-0.028108792 -0.013507046 0.045106381
-0.028082831 -0.013538902 0.045212764
-0.028122297 -0.013602614 0.045425531
-0.028160894 -0.013666327 0.045638297
-0.028198622 -0.01373004 0.045851063
-0.028105065 -0.01373004 0.045851063
-0.028011508 -0.01373004 0.045851063
-0.027917949 -0.01373004 0.045851063
-0.02788895 -0.013761896 0.045957446
-0.027859516 -0.013793753 0.046063829
-0.027829649 -0.013825608 0.046170212
-0.027799346 -0.013857464 0.046276595
-0.02776861 -0.013889321 0.046382979
-0.027737439 -0.013921177 0.046489362
-0.027705835 -0.013953034 0.046595745
-0.027736835 -0.014016747 0.046808511
-0.027641322 -0.014016747 0.046808511
-0.027545812 -0.014016747 0.046808511
-0.027387913 -0.01398489 0.046702128
-0.02729262 -0.01398489 0.046702128
-0.027259279 -0.014016747 0.046808511
-0.027225504 -0.014048602 0.046914894
-0.027191294 -0.014080458 0.047021277
-0.027156651 -0.014112315 0.04712766
-0.027121572 -0.014144171 0.047234043
-0.027025193 -0.014144171 0.047234043
-0.026868163 -0.014112315 0.04712766
-0.026590699 -0.014016747 0.046808511
-0.026073674 -0.013793753 0.046063829
-0.025439689 -0.013507046 0.045106381
-0.024809612 -0.01322034 0.044148937
-0.024362136 -0.013029203 0.043510638
-0.02409531 -0.012933633 0.043191489
-0.023888918 -0.012869922 0.042978723
-0.023624478 -0.012774352 0.042659573
-0.023185253 -0.012583216 0.042021278
-0.02274863 -0.012392078 0.04138298
-0.022314614 -0.01220094 0.040744681
-0.02205734 -0.012105372 0.040425532
-0.021917023 -0.012073515 0.040319148
-0.021834753 -0.012073515 0.040319148
-0.021809878 -0.012105372 0.040425532
-0.021841746 -0.012169085 0.040638298
-0.021815784 -0.01220094 0.040744681
-0.021846134 -0.012264653 0.040957447
-0.021875614 -0.012328366 0.041170213
-0.021904226 -0.012392078 0.04138298
-0.021931969 -0.01245579 0.041595746
-0.021847093 -0.01245579 0.041595746
-0.021706562 -0.012423934 0.041489363
-0.021621903 -0.012423934 0.041489363
-0.02159247 -0.01245579 0.041595746
-0.021617608 -0.012519503 0.041808512
-0.021587089 -0.01255136 0.041914895
-0.021610709 -0.012615072 0.042127661
-0.021579102 -0.012646927 0.042234041
-0.021601202 -0.012710639 0.042446807
-0.021460669 -0.012678783 0.042340424
-0.02132057 -0.012646927 0.042234041
-0.021127421 -0.012583216 0.042021278
-0.020988408 -0.01255136 0.041914895
-0.02084983 -0.012519503 0.041808512
-0.020817356 -0.01255136 0.041914895
-0.020784449 -0.012583216 0.042021278
-0.020751107 -0.012615072 0.042127661
-0.020665148 -0.012615072 0.042127661
-0.020631153 -0.012646927 0.042234041
-0.020544976 -0.012646927 0.042234041
-0.020510333 -0.012678783 0.042340424
-0.020475255 -0.012710639 0.042446807
-0.020439744 -0.012742496 0.04255319
-0.020302033 -0.012710639 0.042446807
-0.020215422 -0.012710639 0.042446807
-0.020128811 -0.012710639 0.042446807
-0.02009243 -0.012742496 0.04255319
-0.020005602 -0.012742496 0.04255319
-0.019968569 -0.012774352 0.042659573
-0.019881524 -0.012774352 0.042659573
-0.019794479 -0.012774352 0.042659573
-0.01975658 -0.012806209 0.042765956
-0.019669317 -0.012806209 0.042765956
-0.019582056 -0.012806209 0.042765956
-0.019494792 -0.012806209 0.042765956
-0.019359251 -0.012774352 0.042659573
-0.019272206 -0.012774352 0.042659573
-0.019233005 -0.012806209 0.042765956
-0.019193368 -0.012838065 0.042872339
-0.019105889 -0.012838065 0.042872339
-0.019065602 -0.012869922 0.042978723
-0.018977905 -0.012869922 0.042978723
-0.018890208 -0.012869922 0.042978723
-0.018802511 -0.012869922 0.042978723
-0.018761139 -0.012901777 0.043085106
-0.018673224 -0.012901777 0.043085106
-0.018631201 -0.012933633 0.043191489
-0.018588742 -0.01296549 0.043297872
-0.018500395 -0.01296549 0.043297872
-0.018412048 -0.01296549 0.043297872
-0.018323699 -0.01296549 0.043297872
-0.018280156 -0.012997346 0.043404255
-0.018236179 -0.013029203 0.043510638
-0.018147396 -0.013029203 0.043510638
-0.018058615 -0.013029203 0.043510638
-0.017969832 -0.013029203 0.043510638
-0.017837331 -0.012997346 0.043404255
-0.017748766 -0.012997346 0.043404255
-0.017703487 -0.013029203 0.043510638
-0.017657772 -0.013061059 0.043617021
-0.017568773 -0.013061059 0.043617021
-0.017479774 -0.013061059 0.043617021
-0.017348358 -0.013029203 0.043510638
-0.017217377 -0.012997346 0.043404255
-0.017128812 -0.012997346 0.043404255
-0.017040247 -0.012997346 0.043404255
-0.01699323 -0.013029203 0.043510638
-0.016904447 -0.013029203 0.043510638
-0.01685678 -0.013061059 0.043617021
-0.016808677 -0.013092916 0.043723404
-0.016800823 -0.013156627 0.043936171
-0.016792098 -0.01322034 0.044148937
-0.016742259 -0.013252197 0.04425532
-0.016691986 -0.013284053 0.044361703
-0.016561655 -0.013252197 0.04425532
-0.016471354 -0.013252197 0.04425532
-0.016381053 -0.013252197 0.04425532
-0.016290752 -0.013252197 0.04425532
-0.016200449 -0.013252197 0.04425532
-0.016110148 -0.013252197 0.04425532
-0.016019847 -0.013252197 0.04425532
-0.015929546 -0.013252197 0.04425532
-0.015839243 -0.013252197 0.04425532
-0.015748942 -0.013252197 0.04425532
-0.015658641 -0.013252197 0.04425532
-0.015568339 -0.013252197 0.04425532
-0.015478038 -0.013252197 0.04425532
-0.015387736 -0.013252197 0.04425532
-0.015334208 -0.013284053 0.044361703
-0.0153168 -0.013347765 0.044574469
-0.015298525 -0.013411478 0.044787236
-0.01524326 -0.013443334 0.044893619
-0.015187561 -0.013475191 0.045000002
-0.015060052 -0.013443334 0.044893619
-0.014897508 -0.013379621 0.044680852
-0.014806338 -0.013379621 0.044680852
-0.014715168 -0.013379621 0.044680852
-0.014658817 -0.013411478 0.044787236
-0.014602032 -0.013443334 0.044893619
-0.014510429 -0.013443334 0.044893619
-0.014452992 -0.013475191 0.045000002
-0.014327221 -0.013443334 0.044893619
-0.014235617 -0.013443334 0.044893619
-0.014144013 -0.013443334 0.044893619
-0.014052409 -0.013443334 0.044893619
-0.013960805 -0.013443334 0.044893619
-0.013869201 -0.013443334 0.044893619
-0.013810245 -0.013475191 0.045000002
-0.013685993 -0.013443334 0.044893619
-0.013594389 -0.013443334 0.044893619
-0.013470788 -0.013411478 0.044787236
-0.013379402 -0.013411478 0.044787236
-0.013288015 -0.013411478 0.044787236
-0.013227973 -0.013443334 0.044893619
-0.013198626 -0.013507046 0.045106381
-0.013106588 -0.013507046 0.045106381
-0.012983857 -0.013475191 0.045000002
-0.012770125 -0.013347765 0.044574469
-0.012527869 -0.013188484 0.044042554
-0.012317828 -0.013061059 0.043617021
-0.012199002 -0.013029203 0.043510638
-0.02790991 -0.013320091 0.044787236
-0.027884603 -0.01335173 0.044893619
-0.027990576 -0.013446647 0.045212764
-0.028095251 -0.013541564 0.045531914
-0.028133197 -0.013604843 0.04574468
-0.028170275 -0.013668121 0.045957446
-0.0280765 -0.013668121 0.045957446
-0.027982725 -0.013668121 0.045957446
-0.02788895 -0.013668121 0.045957446
-0.027859516 -0.013699761 0.046063829
-0.027893772 -0.013763039 0.046276595
-0.027863253 -0.013794678 0.046382979
-0.027832299 -0.013826317 0.046489362
-0.027800912 -0.013857957 0.046595745
-0.027832346 -0.013921235 0.046808511
-0.027736835 -0.013921235 0.046808511
-0.027641322 -0.013921235 0.046808511
-0.027420605 -0.013857957 0.046595745
-0.027325526 -0.013857957 0.046595745
-0.027230449 -0.013857957 0.046595745
-0.027259279 -0.013921235 0.046808511
-0.027287239 -0.013984513 0.047021277
-0.027314331 -0.014047792 0.047234043
-0.027217953 -0.014047792 0.047234043
-0.027121572 -0.014047792 0.047234043
-0.026964325 -0.014016152 0.04712766
-0.026807513 -0.013984513 0.047021277
-0.026469832 -0.013857957 0.046595745
-0.026013458 -0.013668121 0.045957446
-0.025379691 -0.01338337 0.045000002
-0.02474983 -0.013098616 0.044042554
-0.02430257 -0.012908781 0.043404255
-0.024035962 -0.012813863 0.043085106
-0.023711523 -0.012687307 0.042659573
-0.02332991 -0.012529111 0.042127661
-0.022891769 -0.012339276 0.041489363
-0.022456232 -0.012149441 0.040851064
-0.022139825 -0.012022885 0.040425532
-0.021999294 -0.011991246 0.040319148
-0.021917023 -0.011991246 0.040319148
-0.021892365 -0.012022885 0.040425532
-0.021867273 -0.012054523 0.040531915
-0.021841746 -0.012086163 0.040638298
-0.021815784 -0.012117802 0.040744681
-0.021789391 -0.012149441 0.040851064
-0.021875614 -0.012244359 0.041170213
-0.021904226 -0.012307637 0.04138298
-0.021931969 -0.012370916 0.041595746
-0.021847093 -0.012370916 0.041595746
-0.021817878 -0.012402555 0.041702129
-0.021732785 -0.012402555 0.041702129
-0.021702917 -0.012434194 0.041808512
-0.021672616 -0.012465834 0.041914895
-0.021587089 -0.012465834 0.041914895
-0.021556135 -0.012497473 0.042021278
-0.021524748 -0.012529111 0.042127661
-0.021492925 -0.01256075 0.042234041
-0.021406747 -0.01256075 0.042234041
-0.02132057 -0.01256075 0.042234041
-0.021180909 -0.012529111 0.042127661
-0.021041678 -0.012497473 0.042021278
-0.020955935 -0.012497473 0.042021278
-0.020870192 -0.012497473 0.042021278
-0.020889685 -0.01256075 0.042234041
-0.020803507 -0.01256075 0.042234041
-0.020769516 -0.012592389 0.042340424
-0.020683121 -0.012592389 0.042340424
-0.020596728 -0.012592389 0.042340424
-0.020510333 -0.012592389 0.042340424
-0.020475255 -0.012624028 0.042446807
-0.020439744 -0.012655668 0.04255319
-0.020302033 -0.012624028 0.042446807
-0.020215422 -0.012624028 0.042446807
-0.020078361 -0.012592389 0.042340424
-0.019991968 -0.012592389 0.042340424
-0.019955587 -0.012624028 0.042446807
-0.019868976 -0.012624028 0.042446807
-0.019782364 -0.012624028 0.042446807
-0.019695753 -0.012624028 0.042446807
-0.019609142 -0.012624028 0.042446807
-0.019522531 -0.012624028 0.042446807
-0.019387208 -0.012592389 0.042340424
-0.019300815 -0.012592389 0.042340424
-0.019166142 -0.01256075 0.042234041
-0.019079965 -0.01256075 0.042234041
-0.019041631 -0.012592389 0.042340424
-0.01905049 -0.012655668 0.04255319
-0.019011071 -0.012687307 0.042659573
-0.018971218 -0.012718946 0.042765956
-0.018930929 -0.012750586 0.042872339
-0.01884345 -0.012750586 0.042872339
-0.018755971 -0.012750586 0.042872339
-0.018668491 -0.012750586 0.042872339
-0.018627118 -0.012782224 0.042978723
-0.018585311 -0.012813863 0.043085106
-0.01854307 -0.012845503 0.043191489
-0.018454939 -0.012845503 0.043191489
-0.018366808 -0.012845503 0.043191489
-0.018278677 -0.012845503 0.043191489
-0.018235352 -0.012877142 0.043297872
-0.018147003 -0.012877142 0.043297872
-0.018103026 -0.012908781 0.043404255
-0.018014461 -0.012908781 0.043404255
-0.01788196 -0.012877142 0.043297872
-0.017793613 -0.012877142 0.043297872
-0.017748766 -0.012908781 0.043404255
-0.017746771 -0.01297206 0.043617021
-0.017657772 -0.01297206 0.043617021
-0.017568773 -0.01297206 0.043617021
-0.01743714 -0.012940421 0.043510638
-0.017305942 -0.012908781 0.043404255
-0.017175177 -0.012877142 0.043297872
-0.01708683 -0.012877142 0.043297872
-0.016998481 -0.012877142 0.043297872
-0.016951682 -0.012908781 0.043404255
-0.016904447 -0.012940421 0.043510638
-0.01685678 -0.01297206 0.043617021
-0.016808677 -0.013003699 0.043723404
-0.016760143 -0.013035338 0.043829788
-0.016751634 -0.013098616 0.044042554
-0.016742259 -0.013161895 0.04425532
-0.016651958 -0.013161895 0.04425532
-0.016601468 -0.013193535 0.044361703
-0.016471354 -0.013161895 0.04425532
-0.016341675 -0.013130256 0.044148937
-0.016251592 -0.013130256 0.044148937
-0.016200449 -0.013161895 0.04425532
-0.016148875 -0.013193535 0.044361703
-0.016058356 -0.013193535 0.044361703
-0.015967838 -0.013193535 0.044361703
-0.015877319 -0.013193535 0.044361703
-0.015786801 -0.013193535 0.044361703
-0.015696282 -0.013193535 0.044361703
-0.015568339 -0.013161895 0.04425532
-0.015478038 -0.013161895 0.04425532
-0.015387736 -0.013161895 0.04425532
-0.015334208 -0.013193535 0.044361703
-0.015280245 -0.013225174 0.044468086
-0.015262187 -0.013288452 0.044680852
-0.01524326 -0.01335173 0.044893619
-0.015151656 -0.01335173 0.044893619
-0.015060052 -0.01335173 0.044893619
-0.014932978 -0.013320091 0.044787236
-0.014806338 -0.013288452 0.044680852
-0.014750204 -0.013320091 0.044787236
-0.014658817 -0.013320091 0.044787236
-0.014602032 -0.01335173 0.044893619
-0.014510429 -0.01335173 0.044893619
-0.014418825 -0.01335173 0.044893619
-0.014293269 -0.013320091 0.044787236
-0.014201883 -0.013320091 0.044787236
-0.014110496 -0.013320091 0.044787236
-0.014052409 -0.01335173 0.044893619
-0.013993887 -0.01338337 0.045000002
-0.013934931 -0.013415008 0.045106381
-0.013875541 -0.013446647 0.045212764
-0.013783285 -0.013446647 0.045212764
-0.01369103 -0.013446647 0.045212764
-0.013566778 -0.013415008 0.045106381
-0.013442961 -0.01338337 0.045000002
-0.013382702 -0.013415008 0.045106381
-0.01332201 -0.013446647 0.045212764
-0.013260884 -0.013478286 0.045319147
-0.0131375 -0.013446647 0.045212764
-0.012983857 -0.01338337 0.045000002
-0.012770125 -0.013256812 0.044574469
-0.01255813 -0.013130256 0.044148937
-0.012347871 -0.013003699 0.043723404
-0.012258655 -0.013003699 0.043723404
-0.012347095 -0.013193535 0.044361703
-0.012932599 -0.013921235 0.046808511
-0.013537292 -0.014680575 0.049361702
-0.01361032 -0.01487041 0.050000001
-0.02790991 -0.013228704 0.044787236
-0.02795068 -0.013291549 0.045000002
-0.028056437 -0.013385814 0.045319147
-0.028160894 -0.01348008 0.045638297
-0.028198622 -0.013542924 0.045851063
-0.028235484 -0.013605769 0.046063829
-0.028141491 -0.013605769 0.046063829
-0.0280475 -0.013605769 0.046063829
-0.027953507 -0.013605769 0.046063829
-0.027859516 -0.013605769 0.046063829
-0.027893772 -0.013668614 0.046276595
-0.027863253 -0.013700035 0.046382979
-0.027895989 -0.013762879 0.046595745
-0.027864385 -0.013794302 0.046702128
-0.027895601 -0.013857146 0.046914894
-0.027799873 -0.013857146 0.046914894
-0.027641322 -0.013825724 0.046808511
-0.027420605 -0.013762879 0.046595745
-0.02726314 -0.013731457 0.046489362
-0.027230449 -0.013762879 0.046595745
-0.027321232 -0.013857146 0.046914894
-0.02741071 -0.013951412 0.047234043
-0.027437368 -0.014014256 0.04744681
-0.027340556 -0.014014256 0.04744681
-0.027182657 -0.013982834 0.047340427
-0.026964325 -0.013919991 0.04712766
-0.026746862 -0.013857146 0.046914894
-0.026409401 -0.013731457 0.046489362
-0.025953241 -0.013542924 0.045851063
-0.025379691 -0.013291549 0.045000002
-0.024809612 -0.013040171 0.044148937
-0.024421701 -0.012883061 0.043617021
-0.023297608 -0.012380308 0.041914895
-0.022858599 -0.012191774 0.041276596
-0.02248089 -0.012034664 0.040744681
-0.022222312 -0.011940397 0.040425532
-0.0220233 -0.011877554 0.040212765
-0.021999294 -0.011908975 0.040319148
-0.021974852 -0.011940397 0.040425532
-0.021949977 -0.01197182 0.040531915
-0.021924667 -0.012003242 0.040638298
-0.021898923 -0.012034664 0.040744681
-0.021815784 -0.012034664 0.040744681
-0.021846134 -0.012097509 0.040957447
-0.021875614 -0.012160352 0.041170213
-0.021904226 -0.012223197 0.04138298
-0.021931969 -0.012286041 0.041595746
-0.021958845 -0.012348886 0.041808512
-0.021929193 -0.012380308 0.041914895
-0.021843668 -0.012380308 0.041914895
-0.021813365 -0.012411729 0.042021278
-0.021727622 -0.012411729 0.042021278
-0.021641878 -0.012411729 0.042021278
-0.021556135 -0.012411729 0.042021278
-0.021470394 -0.012411729 0.042021278
-0.021438789 -0.012443152 0.042127661
-0.021406747 -0.012474573 0.042234041
-0.02132057 -0.012474573 0.042234041
-0.021234393 -0.012474573 0.042234041
-0.021094948 -0.012443152 0.042127661
-0.021008989 -0.012443152 0.042127661
-0.020923028 -0.012443152 0.042127661
-0.020942304 -0.012505995 0.042340424
-0.020908311 -0.012537417 0.042446807
-0.020873886 -0.012568839 0.04255319
-0.020787057 -0.012568839 0.04255319
-0.020648478 -0.012537417 0.042446807
-0.020561866 -0.012537417 0.042446807
-0.020526571 -0.012568839 0.04255319
-0.020439744 -0.012568839 0.04255319
-0.020302033 -0.012537417 0.042446807
-0.020164756 -0.012505995 0.042340424
-0.020027913 -0.012474573 0.042234041
-0.019941736 -0.012474573 0.042234041
-0.019905573 -0.012505995 0.042340424
-0.01981918 -0.012505995 0.042340424
-0.019732784 -0.012505995 0.042340424
-0.019646391 -0.012505995 0.042340424
-0.019559996 -0.012505995 0.042340424
-0.019424673 -0.012474573 0.042234041
-0.019241074 -0.012411729 0.042021278
-0.019106837 -0.012380308 0.041914895
-0.018973034 -0.012348886 0.041808512
-0.018935785 -0.012380308 0.041914895
-0.018898103 -0.012411729 0.042021278
-0.018955236 -0.012505995 0.042340424
-0.018963661 -0.012568839 0.04255319
-0.018971218 -0.012631684 0.042765956
-0.018930929 -0.012663106 0.042872339
-0.01884345 -0.012663106 0.042872339
-0.01870943 -0.012631684 0.042765956
-0.018622167 -0.012631684 0.042765956
-0.018581012 -0.012663106 0.042872339
-0.018539421 -0.012694527 0.042978723
-0.018497398 -0.01272595 0.043085106
-0.018454939 -0.012757372 0.043191489
-0.018366808 -0.012757372 0.043191489
-0.018233657 -0.01272595 0.043085106
-0.018145742 -0.01272595 0.043085106
-0.018102417 -0.012757372 0.043191489
-0.018014286 -0.012757372 0.043191489
-0.017926155 -0.012757372 0.043191489
-0.017838024 -0.012757372 0.043191489
-0.017793613 -0.012788794 0.043297872
-0.017748766 -0.012820217 0.043404255
-0.017746771 -0.012883061 0.043617021
-0.01770084 -0.012914483 0.043723404
-0.017568773 -0.012883061 0.043617021
-0.017394507 -0.012820217 0.043404255
-0.017263524 -0.012788794 0.043297872
-0.017132977 -0.012757372 0.043191489
-0.01708683 -0.012788794 0.043297872
-0.017040247 -0.012820217 0.043404255
-0.01699323 -0.012851639 0.043510638
-0.016945779 -0.012883061 0.043617021
-0.01685678 -0.012883061 0.043617021
-0.016808677 -0.012914483 0.043723404
-0.016719462 -0.012914483 0.043723404
-0.016670709 -0.012945905 0.043829788
-0.016661767 -0.013008749 0.044042554
-0.016611928 -0.013040171 0.044148937
-0.016561655 -0.013071594 0.04425532
-0.01643176 -0.013040171 0.044148937
-0.016341675 -0.013040171 0.044148937
-0.01621243 -0.013008749 0.044042554
-0.016161507 -0.013040171 0.044148937
-0.016110148 -0.013071594 0.04425532
-0.016058356 -0.013103016 0.044361703
-0.016006131 -0.013134438 0.044468086
-0.015915394 -0.013134438 0.044468086
-0.015824659 -0.013134438 0.044468086
-0.015696282 -0.013103016 0.044361703
-0.015568339 -0.013071594 0.04425532
-0.015440831 -0.013040171 0.044148937
-0.015350747 -0.013040171 0.044148937
-0.015297435 -0.013071594 0.04425532
-0.01524369 -0.013103016 0.044361703
-0.015225848 -0.01316586 0.044574469
-0.015207138 -0.013228704 0.044787236
-0.015115751 -0.013228704 0.044787236
-0.015024365 -0.013228704 0.044787236
-0.014932978 -0.013228704 0.044787236
-0.014841591 -0.013228704 0.044787236
-0.014750204 -0.013228704 0.044787236
-0.014693636 -0.013260126 0.044893619
-0.01456743 -0.013228704 0.044787236
-0.014476043 -0.013228704 0.044787236
-0.014350489 -0.013197282 0.044680852
-0.014259319 -0.013197282 0.044680852
-0.014168149 -0.013197282 0.044680852
-0.014110496 -0.013228704 0.044787236
-0.014052409 -0.013260126 0.044893619
-0.014026969 -0.01332297 0.045106381
-0.014000662 -0.013385814 0.045319147
-0.013940837 -0.013417236 0.045425531
-0.013848148 -0.013417236 0.045425531
-0.013755459 -0.013417236 0.045425531
-0.013630773 -0.013385814 0.045319147
-0.0135383 -0.013385814 0.045319147
-0.013445828 -0.013385814 0.045319147
-0.013384702 -0.013417236 0.045425531
-0.013292013 -0.013417236 0.045425531
-0.0131375 -0.013354392 0.045212764
-0.012983857 -0.013291549 0.045000002
-0.012770125 -0.01316586 0.044574469
-0.01255813 -0.013040171 0.044148937
-0.012377915 -0.012945905 0.043829788
-0.012288481 -0.012945905 0.043829788
-0.012435923 -0.013197282 0.044680852
-0.012903206 -0.013794302 0.046702128
-0.013391416 -0.014422744 0.048829786
-0.013581362 -0.014736964 0.049893618
-0.01359452 -0.014862653 0.05031915
-0.028042501 -0.013199727 0.045000002
-0.028082831 -0.013262137 0.045212764
-0.028188158 -0.013355752 0.045531914
-0.028292181 -0.013449367 0.045851063
-0.028329475 -0.013511777 0.046063829
-0.028300691 -0.013542982 0.046170212
-0.028141491 -0.013511777 0.046063829
-0.0280475 -0.013511777 0.046063829
-0.027953507 -0.013511777 0.046063829
-0.027923858 -0.013542982 0.046170212
-0.027893772 -0.013574188 0.046276595
-0.02792716 -0.013636597 0.046489362
-0.027895989 -0.013667802 0.046595745
-0.027864385 -0.013699007 0.046702128
-0.027895601 -0.013761418 0.046914894
-0.027799873 -0.013761418 0.046914894
-0.027641322 -0.013730212 0.046808511
-0.027483208 -0.013699007 0.046702128
-0.027325526 -0.013667802 0.046595745
-0.02735479 -0.013730212 0.046808511
-0.027507091 -0.013855033 0.047234043
-0.027595919 -0.013948648 0.047553193
-0.027560407 -0.013979853 0.047659576
-0.027463159 -0.013979853 0.047659576
-0.027243743 -0.013917443 0.04744681
-0.026964325 -0.013823828 0.04712766
-0.026686212 -0.013730212 0.046808511
-0.026348967 -0.013605393 0.046382979
-0.025953241 -0.013449367 0.045851063
-0.025499688 -0.013262137 0.045212764
-0.02504874 -0.013074907 0.044574469
-0.022269459 -0.0117955 0.040212765
-0.022128709 -0.011764295 0.040106382
-0.022046873 -0.011764295 0.040106382
-0.0220233 -0.0117955 0.040212765
-0.022115385 -0.011889116 0.040531915
-0.02209051 -0.011920321 0.040638298
-0.0220652 -0.011951526 0.040744681
-0.022039456 -0.011982731 0.040851064
-0.021956101 -0.011982731 0.040851064
-0.021929706 -0.012013936 0.040957447
-0.021902876 -0.012045141 0.04106383
-0.02193214 -0.012107551 0.041276596
-0.021960534 -0.012169961 0.041489363
-0.02198806 -0.012232372 0.041702129
-0.022014719 -0.012294781 0.041914895
-0.021984851 -0.012325986 0.042021278
-0.021954549 -0.012357192 0.042127661
-0.021868588 -0.012357192 0.042127661
-0.021782629 -0.012357192 0.042127661
-0.021641878 -0.012325986 0.042021278
-0.021556135 -0.012325986 0.042021278
-0.021524748 -0.012357192 0.042127661
-0.021492925 -0.012388396 0.042234041
-0.021460669 -0.012419601 0.042340424
-0.021374276 -0.012419601 0.042340424
-0.021287881 -0.012419601 0.042340424
-0.021201486 -0.012419601 0.042340424
-0.021062039 -0.012388396 0.042234041
-0.020975862 -0.012388396 0.042234041
-0.020994922 -0.012450806 0.042446807
-0.020960713 -0.012482011 0.04255319
-0.020926069 -0.012513216 0.042659573
-0.020839024 -0.012513216 0.042659573
-0.020751979 -0.012513216 0.042659573
-0.020664934 -0.012513216 0.042659573
-0.020577889 -0.012513216 0.042659573
-0.020439744 -0.012482011 0.04255319
-0.020302033 -0.012450806 0.042446807
-0.020164756 -0.012419601 0.042340424
-0.020027913 -0.012388396 0.042234041
-0.019991968 -0.012419601 0.042340424
-0.019905573 -0.012419601 0.042340424
-0.01981918 -0.012419601 0.042340424
-0.019782364 -0.012450806 0.042446807
-0.019695753 -0.012450806 0.042446807
-0.019559996 -0.012419601 0.042340424
-0.019375747 -0.012357192 0.042127661
-0.019192364 -0.012294781 0.041914895
-0.019009849 -0.012232372 0.041702129
-0.018924756 -0.012232372 0.041702129
-0.018887725 -0.012263577 0.041808512
-0.018898103 -0.012325986 0.042021278
-0.01890761 -0.012388396 0.042234041
-0.018963661 -0.012482011 0.04255319
-0.018971218 -0.012544421 0.042765956
-0.018930929 -0.012575626 0.042872339
-0.01884345 -0.012575626 0.042872339
-0.01870943 -0.012544421 0.042765956
-0.018622167 -0.012544421 0.042765956
-0.018534904 -0.012544421 0.042765956
-0.018493531 -0.012575626 0.042872339
-0.018451724 -0.012606831 0.042978723
-0.018409483 -0.012638036 0.043085106
-0.01832157 -0.012638036 0.043085106
-0.018233657 -0.012638036 0.043085106
-0.018100938 -0.012606831 0.042978723
-0.018057829 -0.012638036 0.043085106
-0.017969916 -0.012638036 0.043085106
-0.017882001 -0.012638036 0.043085106
-0.017794088 -0.012638036 0.043085106
-0.017749893 -0.012669241 0.043191489
-0.017792268 -0.012762857 0.043510638
-0.017746771 -0.012794062 0.043617021
-0.01770084 -0.012825266 0.043723404
-0.017568773 -0.012794062 0.043617021
-0.01743714 -0.012762857 0.043510638
-0.017305942 -0.012731652 0.043404255
-0.017175177 -0.012700447 0.043297872
-0.017128812 -0.012731652 0.043404255
-0.017123777 -0.012794062 0.043617021
-0.017076327 -0.012825266 0.043723404
-0.016987111 -0.012825266 0.043723404
-0.016897894 -0.012825266 0.043723404
-0.016808677 -0.012825266 0.043723404
-0.016719462 -0.012825266 0.043723404
-0.016630245 -0.012825266 0.043723404
-0.016581276 -0.012856471 0.043829788
-0.016531872 -0.012887677 0.043936171
-0.016482033 -0.012918882 0.044042554
-0.016392166 -0.012918882 0.044042554
-0.016262921 -0.012887677 0.043936171
-0.01617327 -0.012887677 0.043936171
-0.016122563 -0.012918882 0.044042554
-0.016071422 -0.012950087 0.044148937
-0.016058356 -0.013012497 0.044361703
-0.016006131 -0.013043703 0.044468086
-0.015915394 -0.013043703 0.044468086
-0.015824659 -0.013043703 0.044468086
-0.015696282 -0.013012497 0.044361703
-0.015568339 -0.012981292 0.04425532
-0.015440831 -0.012950087 0.044148937
-0.015313757 -0.012918882 0.044042554
-0.01522389 -0.012918882 0.044042554
-0.015207133 -0.012981292 0.04425532
-0.015153171 -0.013012497 0.044361703
-0.015134895 -0.013074907 0.044574469
-0.015079847 -0.013106112 0.044680852
-0.015024365 -0.013137317 0.044787236
-0.014932978 -0.013137317 0.044787236
-0.014876844 -0.013168522 0.044893619
-0.014750204 -0.013137317 0.044787236
-0.014658817 -0.013137317 0.044787236
-0.014532829 -0.013106112 0.044680852
-0.014372889 -0.013043703 0.044468086
-0.014282153 -0.013043703 0.044468086
-0.014225368 -0.013074907 0.044574469
-0.014168149 -0.013106112 0.044680852
-0.014110496 -0.013137317 0.044787236
-0.014085708 -0.013199727 0.045000002
-0.014060051 -0.013262137 0.045212764
-0.014000662 -0.013293342 0.045319147
-0.013940837 -0.013324547 0.045425531
-0.013848148 -0.013324547 0.045425531
-0.013755459 -0.013324547 0.045425531
-0.013630773 -0.013293342 0.045319147
-0.0135383 -0.013293342 0.045319147
-0.013477392 -0.013324547 0.045425531
-0.013384702 -0.013324547 0.045425531
-0.013292013 -0.013324547 0.045425531
-0.0131375 -0.013262137 0.045212764
-0.012953161 -0.013168522 0.044893619
-0.012770125 -0.013074907 0.044574469
-0.01258839 -0.012981292 0.04425532
-0.012377915 -0.012856471 0.043829788
-0.012288481 -0.012856471 0.043829788
-0.012465533 -0.013137317 0.044787236
-0.012815029 -0.013605393 0.046382979
-0.01324554 -0.014167082 0.048297871
-0.013494488 -0.014541543 0.049574468
-0.028175086 -0.013169881 0.045212764
-0.028214986 -0.013231858 0.045425531
-0.028319877 -0.013324821 0.04574468
-0.028423466 -0.013417785 0.046063829
-0.0283949 -0.013448773 0.046170212
-0.028300691 -0.013448773 0.046170212
-0.028141491 -0.013417785 0.046063829
-0.0280475 -0.013417785 0.046063829
-0.028018067 -0.013448773 0.046170212
-0.027988197 -0.013479762 0.046276595
-0.027957896 -0.01351075 0.046382979
-0.02792716 -0.013541738 0.046489362
-0.027895989 -0.013572725 0.046595745
-0.027864385 -0.013603713 0.046702128
-0.027832346 -0.013634701 0.046808511
-0.027736835 -0.013634701 0.046808511
-0.027641322 -0.013634701 0.046808511
-0.027483208 -0.013603713 0.046702128
-0.027450301 -0.013634701 0.046808511
-0.027479131 -0.013696677 0.047021277
-0.027569044 -0.013789642 0.047340427
-0.027657654 -0.013882605 0.047659576
-0.027621925 -0.013913593 0.047765959
-0.027463159 -0.013882605 0.047659576
-0.027243743 -0.01382063 0.04744681
-0.026964325 -0.013727665 0.04712766
-0.026625561 -0.013603713 0.046702128
-0.026288534 -0.013479762 0.046276595
-0.025893025 -0.013324821 0.04574468
-0.025439689 -0.013138893 0.045106381
-0.025228087 -0.013076918 0.044893619
-0.022033803 -0.011589495 0.039787233
-0.021952618 -0.011589495 0.039787233
-0.021988394 -0.011651472 0.039999999
-0.022139825 -0.011775424 0.040425532
-0.022231476 -0.011868387 0.040744681
-0.022206167 -0.011899375 0.040851064
-0.022180423 -0.011930363 0.040957447
-0.02209685 -0.011930363 0.040957447
-0.022070456 -0.011961352 0.04106383
-0.022043627 -0.01199234 0.041170213
-0.022016363 -0.012023328 0.041276596
-0.021988666 -0.012054316 0.04138298
-0.022016844 -0.012116292 0.041595746
-0.022044154 -0.012178267 0.041808512
-0.022070594 -0.012240244 0.042021278
-0.022040509 -0.012271232 0.042127661
-0.022009987 -0.012302219 0.042234041
-0.021868588 -0.012271232 0.042127661
-0.021782629 -0.012271232 0.042127661
-0.021696668 -0.012271232 0.042127661
-0.021610709 -0.012271232 0.042127661
-0.021579102 -0.012302219 0.042234041
-0.021547064 -0.012333207 0.042340424
-0.021460669 -0.012333207 0.042340424
-0.02142798 -0.012364195 0.042446807
-0.021341369 -0.012364195 0.042446807
-0.021201486 -0.012333207 0.042340424
-0.021062039 -0.012302219 0.042234041
-0.020975862 -0.012302219 0.042234041
-0.020994922 -0.012364195 0.042446807
-0.021013115 -0.012426171 0.042659573
-0.020978255 -0.012457158 0.042765956
-0.020890992 -0.012457158 0.042765956
-0.020751979 -0.012426171 0.042659573
-0.020664934 -0.012426171 0.042659573
-0.020577889 -0.012426171 0.042659573
-0.020439744 -0.012395183 0.04255319
-0.020302033 -0.012364195 0.042446807
-0.020164756 -0.012333207 0.042340424
-0.020078361 -0.012333207 0.042340424
-0.019991968 -0.012333207 0.042340424
-0.019905573 -0.012333207 0.042340424
-0.019868976 -0.012364195 0.042446807
-0.019782364 -0.012364195 0.042446807
-0.019695753 -0.012364195 0.042446807
-0.019559996 -0.012333207 0.042340424
-0.019375747 -0.012271232 0.042127661
-0.019143652 -0.012178267 0.041808512
-0.019009849 -0.012147279 0.041702129
-0.018924756 -0.012147279 0.041702129
-0.018887725 -0.012178267 0.041808512
-0.018898103 -0.012240244 0.042021278
-0.018955236 -0.012333207 0.042340424
-0.018963661 -0.012395183 0.04255319
-0.018971218 -0.012457158 0.042765956
-0.018930929 -0.012488146 0.042872339
-0.01884345 -0.012488146 0.042872339
-0.01870943 -0.012457158 0.042765956
-0.018622167 -0.012457158 0.042765956
-0.018534904 -0.012457158 0.042765956
-0.018447641 -0.012457158 0.042765956
-0.018406052 -0.012488146 0.042872339
-0.018364029 -0.012519134 0.042978723
-0.018276332 -0.012519134 0.042978723
-0.018188635 -0.012519134 0.042978723
-0.018100938 -0.012519134 0.042978723
-0.018013241 -0.012519134 0.042978723
-0.017925546 -0.012519134 0.042978723
-0.017837849 -0.012519134 0.042978723
-0.017794088 -0.012550122 0.043085106
-0.017793613 -0.012612099 0.043297872
-0.017792268 -0.012674075 0.043510638
-0.017746771 -0.012705063 0.043617021
-0.01770084 -0.01273605 0.043723404
-0.017568773 -0.012705063 0.043617021
-0.017479774 -0.012705063 0.043617021
-0.017348358 -0.012674075 0.043510638
-0.017259575 -0.012674075 0.043510638
-0.017212776 -0.012705063 0.043617021
-0.017165544 -0.01273605 0.043723404
-0.017117875 -0.012767038 0.043829788
-0.017028442 -0.012767038 0.043829788
-0.016939009 -0.012767038 0.043829788
-0.016849576 -0.012767038 0.043829788
-0.016760143 -0.012767038 0.043829788
-0.016630245 -0.01273605 0.043723404
-0.01654103 -0.01273605 0.043723404
-0.016451813 -0.01273605 0.043723404
-0.016362598 -0.01273605 0.043723404
-0.016273381 -0.01273605 0.043723404
-0.016223542 -0.012767038 0.043829788
-0.016134109 -0.012767038 0.043829788
-0.01608362 -0.012798026 0.043936171
-0.016032696 -0.012829014 0.044042554
-0.015981337 -0.012860003 0.044148937
-0.015929546 -0.012890991 0.04425532
-0.015877319 -0.012921979 0.044361703
-0.015786801 -0.012921979 0.044361703
-0.015696282 -0.012921979 0.044361703
-0.015568339 -0.012890991 0.04425532
-0.015403625 -0.012829014 0.044042554
-0.015276767 -0.012798026 0.043936171
-0.015187117 -0.012798026 0.043936171
-0.015134023 -0.012829014 0.044042554
-0.015080494 -0.012860003 0.044148937
-0.015062653 -0.012921979 0.044361703
-0.015043942 -0.012983955 0.044574469
-0.015024365 -0.01304593 0.044787236
-0.014968448 -0.013076918 0.044893619
-0.014876844 -0.013076918 0.044893619
-0.014750204 -0.01304593 0.044787236
-0.014623998 -0.013014942 0.044680852
-0.014463624 -0.012952967 0.044468086
-0.014304118 -0.012890991 0.04425532
-0.014213817 -0.012890991 0.04425532
-0.014157467 -0.012921979 0.044361703
-0.014134415 -0.012983955 0.044574469
-0.014110496 -0.01304593 0.044787236
-0.014085708 -0.013107906 0.045000002
-0.014060051 -0.013169881 0.045212764
-0.014000662 -0.01320087 0.045319147
-0.01390819 -0.01320087 0.045319147
-0.013815717 -0.01320087 0.045319147
-0.01369103 -0.013169881 0.045212764
-0.013566778 -0.013138893 0.045106381
-0.013506521 -0.013169881 0.045212764
-0.013445828 -0.01320087 0.045319147
-0.013353356 -0.01320087 0.045319147
-0.013260884 -0.01320087 0.045319147
-0.013106588 -0.013138893 0.045106381
-0.012953161 -0.013076918 0.044893619
-0.012800602 -0.013014942 0.044680852
-0.012618651 -0.012921979 0.044361703
-0.012407959 -0.012798026 0.043936171
-0.012288481 -0.012767038 0.043829788
-0.012376704 -0.012952967 0.044468086
-0.012638675 -0.013324821 0.04574468
-0.013099665 -0.013913593 0.047765959
-0.028214986 -0.013139168 0.045425531
-0.028319877 -0.01323148 0.04574468
-0.028357824 -0.013293023 0.045957446
-0.028329475 -0.013323794 0.046063829
-0.028235484 -0.013323794 0.046063829
-0.0280765 -0.013293023 0.045957446
-0.0280475 -0.013323794 0.046063829
-0.028082624 -0.013385336 0.046276595
-0.028052539 -0.013416107 0.046382979
-0.028086143 -0.013477649 0.046595745
-0.027991066 -0.013477649 0.046595745
-0.027895989 -0.013477649 0.046595745
-0.027800912 -0.013477649 0.046595745
-0.027705835 -0.013477649 0.046595745
-0.027673796 -0.01350842 0.046702128
-0.027641322 -0.01353919 0.046808511
-0.027545812 -0.01353919 0.046808511
-0.027450301 -0.01353919 0.046808511
-0.027479131 -0.013600732 0.047021277
-0.027569044 -0.013693045 0.047340427
-0.027657654 -0.013785358 0.047659576
-0.027621925 -0.013816128 0.047765959
-0.027463159 -0.013785358 0.047659576
-0.027243743 -0.013723816 0.04744681
-0.026903458 -0.013600732 0.047021277
-0.026564911 -0.013477649 0.046595745
-0.026107233 -0.013293023 0.045957446
-0.025712376 -0.013139168 0.045425531
-0.025259692 -0.012954543 0.044787236
-0.02474983 -0.012739147 0.044042554
-0.023945181 -0.012369896 0.042765956
-0.022174118 -0.011539082 0.039893616
-0.022092717 -0.011539082 0.039893616
-0.022070011 -0.011569853 0.039999999
-0.022105353 -0.011631395 0.040212765
-0.022256352 -0.011754478 0.040638298
-0.022347568 -0.011846791 0.040957447
-0.022379652 -0.011908333 0.041170213
-0.022295646 -0.011908333 0.041170213
-0.022211639 -0.011908333 0.041170213
-0.02218481 -0.011939105 0.041276596
-0.022157548 -0.011969876 0.04138298
-0.02212985 -0.012000646 0.041489363
-0.022101719 -0.012031417 0.041595746
-0.022073153 -0.012062188 0.041702129
-0.022100246 -0.01212373 0.041914895
-0.02212647 -0.012185272 0.042127661
-0.022040509 -0.012185272 0.042127661
-0.022009987 -0.012216042 0.042234041
-0.021868588 -0.012185272 0.042127661
-0.021837633 -0.012216042 0.042234041
-0.021751456 -0.012216042 0.042234041
-0.021719852 -0.012246813 0.042340424
-0.021633457 -0.012246813 0.042340424
-0.021547064 -0.012246813 0.042340424
-0.021514591 -0.012277584 0.042446807
-0.02142798 -0.012277584 0.042446807
-0.021341369 -0.012277584 0.042446807
-0.021201486 -0.012246813 0.042340424
-0.021115093 -0.012246813 0.042340424
-0.021028697 -0.012246813 0.042340424
-0.020994922 -0.012277584 0.042446807
-0.021013115 -0.012339125 0.042659573
-0.020978255 -0.012369896 0.042765956
-0.020890992 -0.012369896 0.042765956
-0.020751979 -0.012339125 0.042659573
-0.020664934 -0.012339125 0.042659573
-0.020526571 -0.012308354 0.04255319
-0.020439744 -0.012308354 0.04255319
-0.020302033 -0.012277584 0.042446807
-0.020164756 -0.012246813 0.042340424
-0.020078361 -0.012246813 0.042340424
-0.019991968 -0.012246813 0.042340424
-0.019905573 -0.012246813 0.042340424
-0.019868976 -0.012277584 0.042446807
-0.019831944 -0.012308354 0.04255319
-0.019745117 -0.012308354 0.04255319
-0.019609142 -0.012277584 0.042446807
-0.019424673 -0.012216042 0.042234041
-0.019241074 -0.012154501 0.042021278
-0.019058343 -0.012092959 0.041808512
-0.018973034 -0.012092959 0.041808512
-0.018935785 -0.01212373 0.041914895
-0.018945945 -0.012185272 0.042127661
-0.018955236 -0.012246813 0.042340424
-0.018963661 -0.012308354 0.04255319
-0.018924026 -0.012339125 0.042659573
-0.018883955 -0.012369896 0.042765956
-0.018796692 -0.012369896 0.042765956
-0.018662889 -0.012339125 0.042659573
-0.018575843 -0.012339125 0.042659573
-0.018488798 -0.012339125 0.042659573
-0.018447641 -0.012369896 0.042765956
-0.01836038 -0.012369896 0.042765956
-0.018318573 -0.012400667 0.042872339
-0.018231094 -0.012400667 0.042872339
-0.018143613 -0.012400667 0.042872339
-0.01801133 -0.012369896 0.042765956
-0.017968655 -0.012400667 0.042872339
-0.017881176 -0.012400667 0.042872339
-0.017837849 -0.012431438 0.042978723
-0.017794088 -0.012462209 0.043085106
-0.017793613 -0.012523751 0.043297872
-0.017748766 -0.012554522 0.043404255
-0.017746771 -0.012616063 0.043617021
-0.01770084 -0.012646834 0.043723404
-0.017611623 -0.012646834 0.043723404
-0.017479774 -0.012616063 0.043617021
-0.017390775 -0.012616063 0.043617021
-0.017343976 -0.012646834 0.043723404
-0.017296741 -0.012677605 0.043829788
-0.017207308 -0.012677605 0.043829788
-0.017117875 -0.012677605 0.043829788
-0.017028442 -0.012677605 0.043829788
-0.016939009 -0.012677605 0.043829788
-0.016849576 -0.012677605 0.043829788
-0.016760143 -0.012677605 0.043829788
-0.016630245 -0.012646834 0.043723404
-0.016500784 -0.012616063 0.043617021
-0.016371757 -0.012585293 0.043510638
-0.016282974 -0.012585293 0.043510638
-0.016194193 -0.012585293 0.043510638
-0.016144788 -0.012616063 0.043617021
-0.016094949 -0.012646834 0.043723404
-0.016005732 -0.012646834 0.043723404
-0.015955243 -0.012677605 0.043829788
-0.01586581 -0.012677605 0.043829788
-0.015852962 -0.012739147 0.044042554
-0.015801169 -0.012769918 0.044148937
-0.015786801 -0.01283146 0.044361703
-0.015696282 -0.01283146 0.044361703
-0.015568339 -0.012800689 0.04425532
-0.015403625 -0.012739147 0.044042554
-0.015276767 -0.012708376 0.043936171
-0.015150344 -0.012677605 0.043829788
-0.015060911 -0.012677605 0.043829788
-0.015044155 -0.012739147 0.044042554
-0.015062653 -0.01283146 0.044361703
-0.015043942 -0.012893002 0.044574469
-0.015024365 -0.012954543 0.044787236
-0.014932978 -0.012954543 0.044787236
-0.014841591 -0.012954543 0.044787236
-0.014715168 -0.012923772 0.044680852
-0.01455436 -0.012862231 0.044468086
-0.01439442 -0.012800689 0.04425532
-0.014269734 -0.012769918 0.044148937
-0.014213817 -0.012800689 0.04425532
-0.014157467 -0.01283146 0.044361703
-0.014134415 -0.012893002 0.044574469
-0.014110496 -0.012954543 0.044787236
-0.014085708 -0.013016085 0.045000002
-0.014060051 -0.013077626 0.045212764
-0.013967796 -0.013077626 0.045212764
-0.013875541 -0.013077626 0.045212764
-0.013783285 -0.013077626 0.045212764
-0.013658816 -0.013046855 0.045106381
-0.013534782 -0.013016085 0.045000002
-0.01347474 -0.013046855 0.045106381
-0.013414266 -0.013077626 0.045212764
-0.013353356 -0.013108397 0.045319147
-0.013260884 -0.013108397 0.045319147
-0.013106588 -0.013046855 0.045106381
-0.012983857 -0.013016085 0.045000002
-0.01283108 -0.012954543 0.044787236
-0.012648911 -0.012862231 0.044468086
-0.012468046 -0.012769918 0.044148937
-0.012318308 -0.012708376 0.043936171
-0.012317486 -0.012800689 0.04425532
-0.012491714 -0.013077626 0.045212764
-0.028148908 -0.013015925 0.045319147
-0.028122297 -0.013046479 0.045425531
-0.028226538 -0.013138141 0.04574468
-0.028198622 -0.013168694 0.045851063
-0.028170275 -0.013199248 0.045957446
-0.0280765 -0.013199248 0.045957446
-0.0280475 -0.013229802 0.046063829
-0.028082624 -0.01329091 0.046276595
-0.02811688 -0.013352018 0.046489362
-0.028150266 -0.013413125 0.046702128
-0.028054973 -0.013413125 0.046702128
-0.027895989 -0.013382571 0.046595745
-0.027800912 -0.013382571 0.046595745
-0.027705835 -0.013382571 0.046595745
-0.027610758 -0.013382571 0.046595745
-0.027578503 -0.013413125 0.046702128
-0.027483208 -0.013413125 0.046702128
-0.027450301 -0.013443679 0.046808511
-0.027479131 -0.013504786 0.047021277
-0.027569044 -0.013596448 0.047340427
-0.027595919 -0.013657556 0.047553193
-0.027560407 -0.01368811 0.047659576
-0.027401857 -0.013657556 0.047553193
-0.027182657 -0.013596448 0.047340427
-0.02684259 -0.013474233 0.046914894
-0.02644361 -0.013321464 0.046382979
-0.025925932 -0.013107587 0.045638297
-0.025411295 -0.01289371 0.044893619
-0.024839697 -0.01264928 0.044042554
-0.024092225 -0.012313187 0.042872339
-0.023289965 -0.011946542 0.041595746
-0.022492912 -0.011579896 0.040319148
-0.022292381 -0.011518789 0.040106382
-0.022269459 -0.011549342 0.040212765
-0.022246102 -0.011579896 0.040319148
-0.022339273 -0.011671557 0.040638298
-0.022431139 -0.011763219 0.040957447
-0.022521704 -0.01185488 0.041276596
-0.022495309 -0.011885434 0.04138298
-0.02241087 -0.011885434 0.04138298
-0.022326428 -0.011885434 0.04138298
-0.022299165 -0.011915988 0.041489363
-0.022271467 -0.011946542 0.041595746
-0.022243336 -0.011977096 0.041702129
-0.022158245 -0.011977096 0.041702129
-0.022129461 -0.01200765 0.041808512
-0.022100246 -0.012038204 0.041914895
-0.022070594 -0.012068758 0.042021278
-0.022040509 -0.012099312 0.042127661
-0.021954549 -0.012099312 0.042127661
-0.021868588 -0.012099312 0.042127661
-0.021837633 -0.012129865 0.042234041
-0.021806246 -0.012160419 0.042340424
-0.021719852 -0.012160419 0.042340424
-0.021687813 -0.012190972 0.042446807
-0.021601202 -0.012190972 0.042446807
-0.021514591 -0.012190972 0.042446807
-0.02142798 -0.012190972 0.042446807
-0.021341369 -0.012190972 0.042446807
-0.021201486 -0.012160419 0.042340424
-0.021115093 -0.012160419 0.042340424
-0.021028697 -0.012160419 0.042340424
-0.020994922 -0.012190972 0.042446807
-0.020960713 -0.012221525 0.04255319
-0.020926069 -0.012252079 0.042659573
-0.020839024 -0.012252079 0.042659573
-0.020700229 -0.012221525 0.04255319
-0.0206134 -0.012221525 0.04255319
-0.020475255 -0.012190972 0.042446807
-0.020337544 -0.012160419 0.042340424
-0.020251151 -0.012160419 0.042340424
-0.020164756 -0.012160419 0.042340424
-0.020078361 -0.012160419 0.042340424
-0.019991968 -0.012160419 0.042340424
-0.019855559 -0.012129865 0.042234041
-0.01981918 -0.012160419 0.042340424
-0.019782364 -0.012190972 0.042446807
-0.019745117 -0.012221525 0.04255319
-0.019658288 -0.012221525 0.04255319
-0.019473603 -0.012160419 0.042340424
-0.019338496 -0.012129865 0.042234041
-0.019155331 -0.012068758 0.042021278
-0.019021312 -0.012038204 0.041914895
-0.018935785 -0.012038204 0.041914895
-0.018898103 -0.012068758 0.042021278
-0.01890761 -0.012129865 0.042234041
-0.018868843 -0.012160419 0.042340424
-0.01882964 -0.012190972 0.042446807
-0.018790005 -0.012221525 0.04255319
-0.018703176 -0.012221525 0.04255319
-0.018569807 -0.012190972 0.042446807
-0.018483195 -0.012190972 0.042446807
-0.01844269 -0.012221525 0.04255319
-0.018401753 -0.012252079 0.042659573
-0.018314706 -0.012252079 0.042659573
-0.018273117 -0.012282633 0.042765956
-0.018140616 -0.012252079 0.042659573
-0.018053571 -0.012252079 0.042659573
-0.017966526 -0.012252079 0.042659573
-0.017924067 -0.012282633 0.042765956
-0.017881176 -0.012313187 0.042872339
-0.017837849 -0.012343741 0.042978723
-0.017838024 -0.012404849 0.043191489
-0.017793613 -0.012435403 0.043297872
-0.017748766 -0.012465957 0.043404255
-0.017703487 -0.012496511 0.043510638
-0.017657772 -0.012527064 0.043617021
-0.017611623 -0.012557618 0.043723404
-0.017479774 -0.012527064 0.043617021
-0.017433191 -0.012557618 0.043723404
-0.017343976 -0.012557618 0.043723404
-0.017296741 -0.012588172 0.043829788
-0.017207308 -0.012588172 0.043829788
-0.017117875 -0.012588172 0.043829788
-0.017028442 -0.012588172 0.043829788
-0.016939009 -0.012588172 0.043829788
-0.016808677 -0.012557618 0.043723404
-0.016719462 -0.012557618 0.043723404
-0.016630245 -0.012557618 0.043723404
-0.016500784 -0.012527064 0.043617021
-0.016371757 -0.012496511 0.043510638
-0.016243162 -0.012465957 0.043404255
-0.016154597 -0.012465957 0.043404255
-0.01610541 -0.012496511 0.043510638
-0.016055789 -0.012527064 0.043617021
-0.01596679 -0.012527064 0.043617021
-0.015877791 -0.012527064 0.043617021
-0.015788792 -0.012527064 0.043617021
-0.015776377 -0.012588172 0.043829788
-0.015763095 -0.01264928 0.044042554
-0.015748942 -0.012710388 0.04425532
-0.015696282 -0.012740942 0.044361703
-0.015568339 -0.012710388 0.04425532
-0.015403625 -0.01264928 0.044042554
-0.015239777 -0.012588172 0.043829788
-0.015113572 -0.012557618 0.043723404
-0.015060911 -0.012588172 0.043829788
-0.015044155 -0.01264928 0.044042554
-0.015062653 -0.012740942 0.044361703
-0.015079847 -0.012832603 0.044680852
-0.015024365 -0.012863156 0.044787236
-0.014897508 -0.012832603 0.044680852
-0.014771084 -0.01280205 0.044574469
-0.01461006 -0.012740942 0.044361703
-0.014484721 -0.012710388 0.04425532
-0.01439442 -0.012710388 0.04425532
-0.014304118 -0.012710388 0.04425532
-0.014247985 -0.012740942 0.044361703
-0.014191417 -0.012771496 0.044468086
-0.014134415 -0.01280205 0.044574469
-0.014076979 -0.012832603 0.044680852
-0.014085708 -0.012924264 0.045000002
-0.014026969 -0.012954817 0.045106381
-0.013967796 -0.012985371 0.045212764
-0.013875541 -0.012985371 0.045212764
-0.013750855 -0.012954817 0.045106381
-0.013658816 -0.012954817 0.045106381
-0.013534782 -0.012924264 0.045000002
-0.01347474 -0.012954817 0.045106381
-0.013414266 -0.012985371 0.045212764
-0.013353356 -0.013015925 0.045319147
-0.013229755 -0.012985371 0.045212764
-0.013106588 -0.012954817 0.045106381
-0.012983857 -0.012924264 0.045000002
-0.012861557 -0.01289371 0.044893619
-0.012709432 -0.012832603 0.044680852
-0.012528133 -0.012740942 0.044361703
-0.012407787 -0.012710388 0.04425532
-0.012347095 -0.012740942 0.044361703
-0.012315361 -0.01280205 0.044574469
-0.027884603 -0.012802106 0.044893619
-0.027924716 -0.012862779 0.045106381
-0.028029608 -0.01295379 0.045425531
-0.028133197 -0.0130448 0.04574468
-0.028105065 -0.013075137 0.045851063
-0.0280765 -0.013105473 0.045957446
-0.028112276 -0.013166147 0.046170212
-0.028147181 -0.013226821 0.046382979
-0.028181219 -0.013287494 0.046595745
-0.028150266 -0.013317831 0.046702128
-0.028118879 -0.013348168 0.046808511
-0.027959678 -0.013317831 0.046702128
-0.027800912 -0.013287494 0.046595745
-0.027705835 -0.013287494 0.046595745
-0.027610758 -0.013287494 0.046595745
-0.027515681 -0.013287494 0.046595745
-0.027483208 -0.013317831 0.046702128
-0.027450301 -0.013348168 0.046808511
-0.027416959 -0.013378505 0.046914894
-0.027507091 -0.013469515 0.047234043
-0.027534183 -0.013530188 0.04744681
-0.027498888 -0.013560525 0.047553193
-0.027340556 -0.013530188 0.04744681
-0.027060488 -0.013439178 0.04712766
-0.026720855 -0.013317831 0.046702128
-0.026322309 -0.013166147 0.046170212
-0.025744632 -0.012923453 0.045319147
-0.025110213 -0.012650423 0.044361703
-0.024359703 -0.012316718 0.043191489
-0.023554185 -0.011952678 0.041914895
-0.022873009 -0.01164931 0.040851064
-0.022492912 -0.011497626 0.040319148
-0.022351511 -0.011467289 0.040212765
-0.022387287 -0.011527963 0.040425532
-0.022422193 -0.011588637 0.040638298
-0.022514712 -0.011679647 0.040957447
-0.022605928 -0.011770657 0.041276596
-0.022637796 -0.011831331 0.041489363
-0.022610966 -0.011861668 0.041595746
-0.022526093 -0.011861668 0.041595746
-0.022441218 -0.011861668 0.041595746
-0.02241352 -0.011892004 0.041702129
-0.022385389 -0.011922341 0.041808512
-0.022300079 -0.011922341 0.041808512
-0.02221477 -0.011922341 0.041808512
-0.022185771 -0.011952678 0.041914895
-0.022156337 -0.011983015 0.042021278
-0.022070594 -0.011983015 0.042021278
-0.022040509 -0.012013352 0.042127661
-0.021954549 -0.012013352 0.042127661
-0.021868588 -0.012013352 0.042127661
-0.021837633 -0.012043688 0.042234041
-0.021806246 -0.012074023 0.042340424
-0.021774424 -0.01210436 0.042446807
