# .PCD v0.7 - Point Cloud Data file format
VERSION 0.7
FIELDS x y z
SIZE 4 4 4
TYPE F F F
COUNT 1 1 1
WIDTH 1386
HEIGHT 1
VIEWPOINT 0 0 0 1 0 0 0
POINTS 1386
DATA ascii
-0.13158685 0.11207817 0.27989361
-0.13101573 0.11207817 0.27989361
-0.13034546 0.11199298 0.27968085
-0.12977478 0.11199298 0.27968085
-0.12925325 0.11203559 0.27978724
-0.12882914 0.11216338 0.2801064
-0.12840372 0.11229117 0.28042552
-0.12792853 0.11237638 0.28063831
-0.12740415 0.11241897 0.28074467
-0.12683131 0.11241897 0.28074467
-0.12621062 0.11237638 0.28063831
-0.12573324 0.11246157 0.28085107
-0.12525499 0.11254677 0.28106382
-0.12477586 0.11263196 0.28127658
-0.12429589 0.11271717 0.28148937
-0.12381503 0.11280236 0.28170213
-0.12337985 0.11293016 0.28202128
-0.12289704 0.11301536 0.28223404
-0.12241336 0.11310056 0.2824468
-0.12188293 0.11314316 0.2825532
-0.12148908 0.11331355 0.28297871
-0.1210935 0.11348395 0.28340426
-0.12074141 0.11369695 0.28393617
-0.12020708 0.11373955 0.28404257
-0.11958269 0.11369695 0.28393617
-0.11891416 0.11361175 0.28372341
-0.11829085 0.11356915 0.28361702
-0.06904079 0.076806143 0.19180851
-0.068649411 0.076806143 0.19180851
-0.068258032 0.076806143 0.19180851
-0.067829013 0.076763541 0.19170213
-0.067400433 0.076720946 0.19159575
-0.066972286 0.076678351 0.19148937
-0.066581555 0.076678351 0.19148937
-0.066154048 0.076635741 0.19138297
-0.065726988 0.076593146 0.19127659
-0.065336689 0.076593146 0.19127659
-0.064982519 0.076635741 0.19138297
-0.064699724 0.076763541 0.19170213
-0.06437993 0.076848738 0.19191489
-0.06405928 0.076933943 0.19212766
-0.063667253 0.076933943 0.19212766
-0.034943428 0.12157778 0.30361703
-0.034311879 0.12153517 0.30351064
-0.033668958 0.12144998 0.30329788
-0.033026904 0.12136479 0.30308512
-0.032408468 0.12136479 0.30308512
-0.03180119 0.12140737 0.30319148
-0.031204421 0.12149257 0.30340424
-0.019631799 0.11889404 0.29691491
-0.019025953 0.11889404 0.29691491
-0.018406909 0.11880883 0.29670212
-0.017801497 0.11880883 0.29670212
-0.017196087 0.11880883 0.29670212
-0.016596625 0.11885143 0.29680851
-0.015985265 0.11880883 0.29670212
-0.015374341 0.11876624 0.29659575
-0.014763849 0.11872364 0.29648936
-0.014143632 0.11859584 0.2961702
-0.01351499 0.11838284 0.29563829
-0.012879227 0.11808465 0.29489362
-0.012246502 0.11778645 0.29414892
-0.011625241 0.11757345 0.29361701
-0.011022131 0.11753087 0.29351065
-0.010423232 0.11753087 0.29351065
-0.009835016 0.11765867 0.2938298
-0.0092421537 0.11774386 0.29404256
-0.0086484225 0.11782905 0.29425532
-0.0046514207 0.080043674 0.19989362
-0.0042458028 0.080086268 0.2
-0.0038397508 0.080128871 0.20010638
-0.003435089 0.080214068 0.20031916
-0.0030295588 0.080299266 0.20053191
-0.0026217701 0.080341861 0.20063829
-0.0022112015 0.080299266 0.20053191
-0.0018020228 0.080299266 0.20053191
-0.0013928441 0.080299266 0.20053191
0.033234641 0.08298301 0.20723404
0.033813 0.083366401 0.20819148
0.034412757 0.083792396 0.20925532
0.034928296 0.084005386 0.20978723
0.035374288 0.084047981 0.20989361
0.035802569 0.084047981 0.20989361
0.036267579 0.084133185 0.21010639
0.036752034 0.084260978 0.21042553
0.037237793 0.084388778 0.21074468
0.037705839 0.084473975 0.21095745
0.038136292 0.084473975 0.21095745
0.038527846 0.084388778 0.21074468
0.038938198 0.084346183 0.2106383
0.039348114 0.08430358 0.21053192
0.039817896 0.084388778 0.21074468
0.040308867 0.084516577 0.21106383
0.040801138 0.084644377 0.21138299
0.041232459 0.084644377 0.21138299
0.041642807 0.084601775 0.21127659
0.042010356 0.084473975 0.21095745
0.042419404 0.084431373 0.21085106
0.042849638 0.084431373 0.21085106
0.043323547 0.084516577 0.21106383
0.04379832 0.084601775 0.21127659
0.044273969 0.084686972 0.21148936
0.044705503 0.084686972 0.21148936
0.04513704 0.084686972 0.21148936
0.045545656 0.084644377 0.21138299
0.045953836 0.084601775 0.21127659
0.046408296 0.084644377 0.21138299
0.046910334 0.08477217 0.21170212
0.047437467 0.084942564 0.21212766
0.047942325 0.085070364 0.21244681
0.048400041 0.085112959 0.21255319
0.04883375 0.085112959 0.21255319
0.049242798 0.085070364 0.21244681
0.049676288 0.085070364 0.21244681
0.050109781 0.085070364 0.21244681
0.050568581 0.085112959 0.21255319
0.051053341 0.085198164 0.21276596
0.051487483 0.085198164 0.21276596
0.051895663 0.085155562 0.21265957
0.052303411 0.085112959 0.21255319
0.052789908 0.085198164 0.21276596
0.0533305 0.085368559 0.21319149
0.053845994 0.085496351 0.21351063
0.054281656 0.085496351 0.21351063
0.05455374 0.085240759 0.21287234
0.054823212 0.084985159 0.21223404
0.055173181 0.084857367 0.2119149
0.055661414 0.084942564 0.21212766
0.056206778 0.085112959 0.21255319
0.056782227 0.085325956 0.2130851
0.11317838 0.11714747 0.29255319
0.11373396 0.11710488 0.29244682
0.11416432 0.11693447 0.29202127
0.11450934 0.11667888 0.29138297
0.11485176 0.11642329 0.29074469
0.11527605 0.11625289 0.29031914
0.11595334 0.11633808 0.2905319
0.11688757 0.11667888 0.29138297
0.11795394 0.11714747 0.29255319
0.11889576 0.11748827 0.29340425
0.11962443 0.11761606 0.2937234
0.12136099 0.092099212 0.23
0.12177394 0.09205661 0.22989361
0.12229961 0.092099212 0.23
0.12288248 0.092184409 0.23021276
0.12358023 0.092354804 0.2306383
0.1242225 0.092482604 0.23095745
0.12480863 0.092567801 0.23117021
-0.13677883 0.11269211 0.28
-0.13636276 0.11282056 0.28031915
-0.13589384 0.11290619 0.28053191
-0.1352701 0.11286337 0.28042552
-0.13459571 0.11277774 0.28021276
-0.13392219 0.11269211 0.28
-0.13319886 0.11256366 0.27968085
-0.13262817 0.11256366 0.27968085
-0.1320575 0.11256366 0.27968085
-0.13148682 0.11256366 0.27968085
-0.13091613 0.11256366 0.27968085
-0.13034546 0.11256366 0.27968085
-0.12972541 0.11252084 0.27957445
-0.12920409 0.11256366 0.27968085
-0.12878022 0.11269211 0.28
-0.12835501 0.11282056 0.28031915
-0.12788002 0.11290619 0.28053191
-0.12730761 0.11290619 0.28053191
-0.12673518 0.11290619 0.28053191
-0.12621062 0.11294901 0.28063831
-0.12573324 0.11303464 0.28085107
-0.12525499 0.11312027 0.28106382
-0.12477586 0.1132059 0.28127658
-0.12429589 0.11329154 0.28148937
-0.1238618 0.11341999 0.28180853
-0.12337985 0.11350562 0.28202128
-0.12285072 0.11354843 0.28212765
-0.12232115 0.11359125 0.28223404
-0.12179115 0.11363407 0.28234044
-0.12139773 0.11380533 0.28276595
-0.12104804 0.11401941 0.28329787
-0.12074141 0.1142763 0.28393617
-0.12029712 0.11440476 0.28425533
-0.1196275 0.11431913 0.28404257
-0.06904079 0.077197522 0.19180851
-0.068687491 0.077240333 0.19191489
-0.068295889 0.077240333 0.19191489
-0.067829013 0.077154703 0.19170213
-0.067363009 0.077069074 0.19148937
-0.06693507 0.077026255 0.19138297
-0.06650757 0.076983437 0.19127659
-0.066080511 0.076940626 0.19117022
-0.065653875 0.076897807 0.19106384
-0.065264016 0.076897807 0.19106384
-0.064946398 0.076983437 0.19127659
-0.064627916 0.077069074 0.19148937
-0.06434425 0.077197522 0.19180851
-0.064023808 0.077283151 0.19202128
-0.03485772 0.12189758 0.30287233
-0.034239721 0.12189758 0.30287233
-0.033609912 0.12185477 0.30276597
-0.032980535 0.12181195 0.30265957
-0.032362968 0.12181195 0.30265957
-0.031756561 0.12185477 0.30276597
-0.031160658 0.1219404 0.30297872
-0.019617729 0.11941424 0.29670212
-0.019005504 0.11937143 0.29659575
-0.018393708 0.11932861 0.29648936
-0.017788732 0.11932861 0.29648936
-0.017189922 0.11937143 0.29659575
-0.016584728 0.11937143 0.29659575
-0.015973803 0.11932861 0.29648936
-0.015363312 0.1192858 0.29638299
-0.014747957 0.11920016 0.2961702
-0.014128391 0.11907171 0.29585105
-0.0135004 0.11885763 0.29531914
-0.012869935 0.11860074 0.29468086
-0.012237644 0.11830103 0.29393616
-0.011621029 0.11812977 0.29351065
-0.011018136 0.11808694 0.29340425
-0.010427009 0.11817257 0.29361701
-0.0098385764 0.11830103 0.29393616
-0.0092454962 0.11838665 0.29414892
-0.0046489448 0.08040873 0.19978723
-0.0042435443 0.080451548 0.19989362
-0.0038377095 0.080494367 0.2
-0.0034332646 0.080579996 0.20021276
-0.0030263446 0.080622815 0.20031916
-0.0026175999 0.080622815 0.20031916
-0.0022076822 0.080579996 0.20021276
-0.0017981989 0.080537178 0.20010638
-0.0013898885 0.080537178 0.20010638
0.035838865 0.084561899 0.21010639
0.036304303 0.084647529 0.21031915
0.036789194 0.084775977 0.2106383
0.037275389 0.084904432 0.21095745
0.037724853 0.084947243 0.21106383
0.038117059 0.084861606 0.21085106
0.038488947 0.084733166 0.21053192
0.038879201 0.084647529 0.21031915
0.039308347 0.084647529 0.21031915
0.039797798 0.084775977 0.2106383
0.040288549 0.084904432 0.21095745
0.04076007 0.084990062 0.21117021
0.041211706 0.085032873 0.21127659
0.041621841 0.084990062 0.21117021
0.042010356 0.084904432 0.21095745
0.042440809 0.084904432 0.21095745
0.042871259 0.084904432 0.21095745
0.043323547 0.084947243 0.21106383
0.04379832 0.085032873 0.21127659
0.044251699 0.085075691 0.21138299
0.044683017 0.085075691 0.21138299
0.045114338 0.085075691 0.21138299
0.045522731 0.085032873 0.21127659
0.045953836 0.085032873 0.21127659
0.046408296 0.085075691 0.21138299
0.046886761 0.085161321 0.21159574
0.047389887 0.085289776 0.2119149
0.04789431 0.085418217 0.21223404
0.048375819 0.085503854 0.21244681
0.04883375 0.085546672 0.21255319
0.049292114 0.085589483 0.21265957
0.049726039 0.085589483 0.21265957
0.050159965 0.085589483 0.21265957
0.050593887 0.085589483 0.21265957
0.051027812 0.085589483 0.21265957
0.051435996 0.085546672 0.21255319
0.051843744 0.085503854 0.21244681
0.052277233 0.085503854 0.21244681
0.052789908 0.085632302 0.21276596
0.0533305 0.085803568 0.21319149
0.053845994 0.085932016 0.21351063
0.05425461 0.085889198 0.21340425
0.05455374 0.08567512 0.21287234
0.054850698 0.085461043 0.21234043
0.055200879 0.085332587 0.21202128
0.055661414 0.085375406 0.21212766
0.056206778 0.085546672 0.21255319
0.056782227 0.08576075 0.2130851
0.057331283 0.085932016 0.21351063
0.057910863 0.086146101 0.21404256
0.11350763 0.11808694 0.29340425
0.11402357 0.11800131 0.29319149
0.11441386 0.11778723 0.29265958
0.11467657 0.1174447 0.29180852
0.11485176 0.11701655 0.29074469
0.11519156 0.11675964 0.29010639
0.11582598 0.11680247 0.29021278
0.11680222 0.11718781 0.29117021
0.11795394 0.11774442 0.29255319
0.11898198 0.11817257 0.29361701
0.11979772 0.11838665 0.29414892
0.12124872 0.092482887 0.22978723
0.12177394 0.092525698 0.22989361
0.12229961 0.092568524 0.23
0.1228257 0.092611335 0.23010638
0.12346623 0.092739783 0.23042554
0.12405084 0.092825413 0.2306383
0.12457889 0.092868231 0.23074467
-0.13938119 0.11352164 0.28063831
-0.13849284 0.11326344 0.28
-0.13760708 0.11300524 0.2793617
-0.13698488 0.11296222 0.27925533
-0.13646702 0.11300524 0.2793617
-0.13594876 0.11304828 0.27946809
-0.13543004 0.1130913 0.27957445
-0.13485958 0.1130913 0.27957445
-0.13423802 0.11304828 0.27946809
-0.13361689 0.11300524 0.2793617
-0.1329962 0.11296222 0.27925533
-0.13247684 0.11300524 0.2793617
-0.13200726 0.1130913 0.27957445
-0.13148682 0.11313434 0.27968085
-0.13091613 0.11313434 0.27968085
-0.13034546 0.11313434 0.27968085
-0.12972541 0.1130913 0.27957445
-0.12920409 0.11313434 0.27968085
-0.12873128 0.1132204 0.27989361
-0.1283063 0.1133495 0.28021276
-0.12778303 0.11339254 0.28031915
-0.12725931 0.11343557 0.28042552
-0.12673518 0.11347861 0.28053191
-0.12625845 0.11356467 0.28074467
-0.12578087 0.11365075 0.28095746
-0.1253024 0.11373681 0.28117022
-0.12482306 0.11382287 0.28138298
-0.12438983 0.11395197 0.28170213
-0.12390854 0.11403804 0.28191489
-0.12337985 0.11408108 0.28202128
-0.12275807 0.11403804 0.28191489
-0.12213673 0.11399501 0.28180853
-0.12156171 0.11399501 0.28180853
-0.12121505 0.11421017 0.28234044
-0.12095713 0.11451141 0.28308511
-0.069316648 0.077459805 0.19148937
-0.068964213 0.077502832 0.19159575
-0.068611339 0.077545866 0.19170213
-0.068220176 0.077545866 0.19170213
-0.06779138 0.077502832 0.19159575
-0.067325585 0.077416763 0.19138297
-0.066897869 0.077373736 0.19127659
-0.066470586 0.077330701 0.19117022
-0.066080511 0.077330701 0.19117022
-0.065653875 0.077287666 0.19106384
-0.065264016 0.077287666 0.19106384
-0.064910278 0.077330701 0.19117022
-0.064627916 0.077459805 0.19148937
-0.064308561 0.077545866 0.19170213
-0.063952871 0.077588901 0.19180851
-0.034808747 0.12234345 0.30244681
-0.034203637 0.12238648 0.30255318
-0.03358629 0.12238648 0.30255318
-0.032957349 0.12234345 0.30244681
-0.032340217 0.12234345 0.30244681
-0.031734239 0.12238648 0.30255318
-0.031127833 0.12242951 0.30265957
-0.020208638 0.11993359 0.29648936
-0.019603662 0.11993359 0.29648936
-0.018985052 0.11984753 0.2962766
-0.018373908 0.11980449 0.2961702
-0.017775968 0.11984753 0.2962766
-0.017171424 0.11984753 0.2962766
-0.016566882 0.11984753 0.2962766
-0.015956607 0.11980449 0.2961702
-0.015341254 0.11971842 0.29595745
-0.014726768 0.11963236 0.29574469
-0.014113151 0.11954629 0.29553193
-0.01348581 0.11933112 0.29499999
-0.012855996 0.11907293 0.29436171
-0.012233215 0.11885776 0.2938298
-0.011621029 0.11872866 0.29351065
-0.011022131 0.11872866 0.29351065
-0.010430788 0.11881473 0.2937234
-0.0098421378 0.11894383 0.29404256
-0.0092488406 0.11902989 0.29425532
-0.0050485269 0.080687292 0.19946809
-0.0046439944 0.080730326 0.19957447
-0.0042390274 0.080773361 0.19968085
-0.0038356683 0.08085943 0.19989362
-0.0034314403 0.080945492 0.20010638
-0.0030231301 0.080945492 0.20010638
-0.0026148197 0.080945492 0.20010638
-0.0022041632 0.08085943 0.19989362
-0.001794375 0.080773361 0.19968085
-0.001386194 0.080730326 0.19957447
0.03634103 0.085162751 0.21053192
0.036826354 0.085291848 0.21085106
0.037294187 0.085377917 0.21106383
0.037724853 0.085377917 0.21106383
0.038078595 0.085205778 0.2106383
0.038430601 0.085033648 0.21021277
0.038839869 0.084990613 0.21010639
0.039288465 0.085033648 0.21021277
0.0397777 0.085162751 0.21053192
0.040247913 0.085248813 0.21074468
0.040719002 0.085334882 0.21095745
0.041170202 0.085377917 0.21106383
0.041600872 0.085377917 0.21106383
0.042031541 0.085377917 0.21106383
0.042462211 0.085377917 0.21106383
0.042914499 0.085420944 0.21117021
0.043345384 0.085420944 0.21117021
0.04379832 0.085463978 0.21127659
0.044251699 0.085507013 0.21138299
0.044660527 0.085463978 0.21127659
0.045068927 0.085420944 0.21117021
0.045476891 0.085377917 0.21106383
0.045930699 0.085420944 0.21117021
0.046408296 0.085507013 0.21138299
0.046910334 0.085636109 0.21170212
0.047389887 0.085722178 0.2119149
0.047870304 0.08580824 0.21212766
0.048351593 0.085894316 0.21234043
0.04883375 0.085980378 0.21255319
0.049292114 0.086023405 0.21265957
0.049750917 0.086066447 0.21276596
0.050159965 0.086023405 0.21265957
0.050568581 0.085980378 0.21255319
0.050976761 0.085937344 0.21244681
0.051384509 0.085894316 0.21234043
0.051817782 0.085894316 0.21234043
0.052277233 0.085937344 0.21244681
0.052789908 0.086066447 0.21276596
0.0533305 0.086238578 0.21319149
0.053819165 0.08632464 0.21340425
0.054200519 0.086238578 0.21319149
0.05455374 0.086109474 0.21287234
0.054850698 0.085894316 0.21234043
0.055228572 0.08580824 0.21212766
0.055689327 0.085851274 0.21223404
0.056206778 0.085980378 0.21255319
0.056753881 0.086152509 0.21297872
0.057331283 0.086367674 0.21351063
0.057910863 0.086582847 0.21404256
0.058434606 0.086711943 0.2143617
0.058901224 0.086754978 0.21446809
0.11394083 0.11851349 0.29297873
0.11433069 0.11829833 0.29244682
0.11467657 0.11804013 0.29180852
0.11485176 0.1176098 0.29074469
0.11514932 0.11730856 0.28999999
0.11574105 0.11730856 0.28999999
0.11675954 0.11773889 0.29106382
0.11791106 0.11829833 0.29244682
0.11898198 0.11877169 0.29361701
0.11979772 0.11898685 0.29414892
0.12130485 0.092994787 0.22989361
0.12177394 0.092994787 0.22989361
0.12229961 0.093037829 0.23
0.12276892 0.093037829 0.23
0.12323822 0.093037829 0.23
0.12370753 0.093037829 0.23
0.12417684 0.093037829 0.23
-0.14068626 0.11422403 0.28095746
-0.14000686 0.11413752 0.28074467
-0.13927549 0.11400776 0.28042552
-0.13838759 0.11374827 0.27978724
-0.13755469 0.11353202 0.27925533
-0.13682832 0.11340227 0.27893618
-0.13615523 0.11331578 0.27872342
-0.1355865 0.11331578 0.27872342
-0.13506931 0.11335902 0.27882978
-0.13444905 0.11331578 0.27872342
-0.13388033 0.11331578 0.27872342
-0.1333116 0.11331578 0.27872342
-0.13284421 0.11340227 0.27893618
-0.1324264 0.11353202 0.27925533
-0.13200726 0.11366177 0.27957445
-0.13148682 0.11370502 0.27968085
-0.13091613 0.11370502 0.27968085
-0.13029587 0.11366177 0.27957445
-0.12972541 0.11366177 0.27957445
-0.12915495 0.11366177 0.27957445
-0.12868236 0.11374827 0.27978724
-0.12820888 0.11383477 0.28
-0.12773453 0.11392127 0.28021276
-0.12725931 0.11400776 0.28042552
-0.12678325 0.11409428 0.28063831
-0.12635416 0.11422403 0.28095746
-0.12592374 0.11435377 0.28127658
-0.12544462 0.11444028 0.28148937
-0.12496464 0.11452678 0.28170213
-0.12448378 0.11461327 0.28191489
-0.12395531 0.11465653 0.28202128
-0.12337985 0.11465653 0.28202128
-0.12266542 0.11452678 0.28170213
-0.1219523 0.11439703 0.28138298
-0.12137815 0.11439703 0.28138298
-0.069278136 0.077807277 0.19138297
-0.068887621 0.077807277 0.19138297
-0.068497114 0.077807277 0.19138297
-0.068068743 0.077764027 0.19127659
-0.067640811 0.077720776 0.19117022
-0.067213312 0.077677526 0.19106384
-0.066823453 0.077677526 0.19106384
-0.066470586 0.077720776 0.19117022
-0.066117279 0.077764027 0.19127659
-0.065690428 0.077720776 0.19117022
-0.065300353 0.077720776 0.19117022
-0.064946398 0.077764027 0.19127659
-0.064627916 0.077850528 0.19148937
-0.064308561 0.077937029 0.19170213
-0.035376035 0.12278758 0.30202127
-0.034784261 0.12287409 0.30223405
-0.034191616 0.12296058 0.30244681
-0.03358629 0.12300383 0.30255318
-0.032957349 0.12296058 0.30244681
-0.032340217 0.12296058 0.30244681
-0.031723086 0.12296058 0.30244681
-0.031116892 0.12300383 0.30255318
-0.020201389 0.12049532 0.29638299
-0.019589595 0.12045207 0.2962766
-0.018978234 0.12040881 0.2961702
-0.018367311 0.12036557 0.29606384
-0.017756818 0.12032232 0.29595745
-0.017152928 0.12032232 0.29595745
-0.016549036 0.12032232 0.29595745
-0.015939413 0.12027906 0.29585105
-0.015330225 0.12023582 0.29574469
-0.014716174 0.12014932 0.29553193
-0.014097909 0.12001957 0.29521278
-0.013471222 0.11980332 0.29468086
-0.012846703 0.11958706 0.29414892
-0.012228786 0.11941406 0.2937234
-0.011621029 0.11932756 0.29351065
-0.011022131 0.11932756 0.29351065
-0.010434566 0.11945731 0.2938298
-0.0098456973 0.11958706 0.29414892
-0.0092488406 0.11963031 0.29425532
-0.0050377566 0.0809213 0.19904256
-0.0046365676 0.081007801 0.19925532
-0.0042345109 0.081094302 0.19946809
-0.0038336266 0.081224047 0.19978723
-0.0034277921 0.081267305 0.19989362
-0.0030215229 0.081310555 0.2
-0.0026106492 0.081224047 0.19978723
-0.002200644 0.081137553 0.19957447
-0.001790551 0.081007801 0.19925532
-0.0013832384 0.08096455 0.19914894
0.0388202 0.085376076 0.20999999
0.039288465 0.085462578 0.21021277
0.0397777 0.08559233 0.21053192
0.040247913 0.085678831 0.21074468
0.040698465 0.085722081 0.21085106
0.041149452 0.085765332 0.21095745
0.041600872 0.085808583 0.21106383
0.042073909 0.085895076 0.21127659
0.042526416 0.085938334 0.21138299
0.042957738 0.085938334 0.21138299
0.043389056 0.085938334 0.21138299
0.04379832 0.085895076 0.21127659
0.044207156 0.085851833 0.21117021
0.044615552 0.085808583 0.21106383
0.04500081 0.085722081 0.21085106
0.045431044 0.085722081 0.21085106
0.045907561 0.085808583 0.21106383
0.046408296 0.085938334 0.21138299
0.046910334 0.086068079 0.21170212
0.047389887 0.086154588 0.2119149
0.047870304 0.086241081 0.21212766
0.048327368 0.086284332 0.21223404
0.048809309 0.086370833 0.21244681
0.049267456 0.086414084 0.21255319
0.049701165 0.086414084 0.21255319
0.050134871 0.086414084 0.21255319
0.050517961 0.08632759 0.21234043
0.05090018 0.086241081 0.21212766
0.051307276 0.086197831 0.21202128
0.051765859 0.086241081 0.21212766
0.052251056 0.08632759 0.21234043
0.052789908 0.086500585 0.21276596
0.053303886 0.086630337 0.2130851
0.053765509 0.086673588 0.21319149
0.054146424 0.086587086 0.21297872
0.054499209 0.086457334 0.21265957
0.054878175 0.086370833 0.21244681
0.05525627 0.086284332 0.21223404
0.055717245 0.08632759 0.21234043
0.056206778 0.086414084 0.21255319
0.056753881 0.086587086 0.21297872
0.057302721 0.086760089 0.21340425
0.057882078 0.086976334 0.21393616
0.058376607 0.087062843 0.21414894
0.058842789 0.087106086 0.21425532
0.059250537 0.087062843 0.21414894
0.059687499 0.087062843 0.21414894
0.060124464 0.087062843 0.21414894
0.060591511 0.087106086 0.21425532
0.06096809 0.087019593 0.21404256
0.061374314 0.086976334 0.21393616
0.061810844 0.086976334 0.21393616
0.062340233 0.087106086 0.21425532
0.0629021 0.087279089 0.21468085
0.063402921 0.087365597 0.21489362
0.063778192 0.087279089 0.21468085
0.11352709 0.1186788 0.29191488
0.11403956 0.1185923 0.29170212
0.11446754 0.1184193 0.2912766
0.1147677 0.11811654 0.2905319
0.11510708 0.11785705 0.28989363
0.11569861 0.11785705 0.28989363
0.11667419 0.11824629 0.29085106
0.11782526 0.11880855 0.29223403
0.11889576 0.11928431 0.29340425
0.11962443 0.11941406 0.2937234
0.1218303 0.093507133 0.23
0.12229961 0.093507133 0.23
0.12265534 0.093420632 0.22978723
0.12306722 0.093377382 0.22968085
0.12342144 0.093290888 0.22946809
0.12383222 0.09324763 0.2293617
-0.14156429 0.11457997 0.28042552
-0.14099209 0.11457997 0.28042552
-0.1404199 0.11457997 0.28042552
-0.13968855 0.11444958 0.2801064
-0.1389585 0.11431917 0.27978724
-0.13817711 0.11414529 0.2793617
-0.13739748 0.11397143 0.27893618
-0.13667177 0.11384103 0.27861702
-0.13594736 0.11371063 0.27829787
-0.13532774 0.11366715 0.27819148
-0.1347601 0.11366715 0.27819148
-0.13414115 0.11362369 0.27808511
-0.13357373 0.11362369 0.27808511
-0.13310806 0.11371063 0.27829787
-0.13274288 0.1138845 0.27872342
-0.13237594 0.11405836 0.27914894
-0.13200726 0.11423223 0.27957445
-0.13153684 0.11431917 0.27978724
-0.13091613 0.1142757 0.27968085
-0.13029587 0.11423223 0.27957445
-0.12967606 0.11418877 0.27946809
-0.12910581 0.11418877 0.27946809
-0.12863342 0.1142757 0.27968085
-0.12816016 0.11436263 0.27989361
-0.12768605 0.11444958 0.2801064
-0.12725931 0.11457997 0.28042552
-0.12683131 0.11471037 0.28074467
-0.12644984 0.11488424 0.28117022
-0.126019 0.11501465 0.28148937
-0.12558685 0.11514505 0.28180853
-0.12505902 0.11518851 0.28191489
-0.12453076 0.11523198 0.28202128
-0.12400205 0.11527544 0.28212765
-0.12342639 0.11527544 0.28212765
-0.12261909 0.11505811 0.28159574
-0.069278136 0.078197785 0.19138297
-0.068811044 0.078110851 0.19117022
-0.068344809 0.078023918 0.19095744
-0.067917317 0.077980451 0.19085106
-0.06749025 0.077936985 0.19074468
-0.067101039 0.077936985 0.19074468
-0.066786245 0.078023918 0.19095744
-0.066470586 0.078110851 0.19117022
-0.066154048 0.078197785 0.19138297
-0.065800101 0.078241259 0.19148937
-0.065373026 0.078197785 0.19138297
-0.064982519 0.078197785 0.19138297
-0.064592011 0.078197785 0.19138297
-0.064237185 0.078241259 0.19148937
-0.035363577 0.12336038 0.3019149
-0.034772016 0.12344731 0.30212766
-0.034191616 0.12357771 0.30244681
-0.033574481 0.12357771 0.30244681
-0.032945756 0.12353425 0.30234042
-0.03232884 0.12353425 0.30234042
-0.031711925 0.12353425 0.30234042
-0.031095009 0.12353425 0.30234042
-0.020186886 0.12101313 0.2961702
-0.01958256 0.12101313 0.2961702
-0.018964602 0.12092621 0.29595745
-0.018354109 0.12088273 0.29585105
-0.017744053 0.12083928 0.29574469
-0.01713443 0.1207958 0.29563829
-0.016525242 0.12075234 0.29553193
-0.01592222 0.12075234 0.29553193
-0.015319197 0.12075234 0.29553193
-0.014705578 0.1206654 0.29531914
-0.014082668 0.12049153 0.29489362
-0.013461494 0.12031766 0.29446808
-0.012832765 0.12005686 0.2938298
-0.012219928 0.11992646 0.29351065
-0.011612605 0.11983953 0.29329789
-0.011018136 0.11988299 0.29340425
-0.010430788 0.12001339 0.2937234
-0.0098421378 0.12014379 0.29404256
-0.0092488406 0.12023073 0.29425532
-0.0050269864 0.081153572 0.19861703
-0.0046291412 0.081283972 0.19893616
-0.004232252 0.081457838 0.1993617
-0.0038315854 0.081588238 0.19968085
-0.0034259676 0.081631705 0.19978723
-0.0030183084 0.081631705 0.19978723
-0.002606479 0.081501313 0.19946809
-0.0021959518 0.081370905 0.19914894
-0.0017876831 0.081283972 0.19893616
0.0397777 0.086021915 0.21053192
0.040207282 0.086021915 0.21053192
0.040657397 0.086065382 0.2106383
0.041107949 0.086108848 0.21074468
0.041600872 0.086239249 0.21106383
0.042073909 0.086326182 0.21127659
0.042547818 0.086413123 0.21148936
0.042979356 0.086413123 0.21148936
0.043410894 0.086413123 0.21148936
0.04379832 0.086326182 0.21127659
0.044207156 0.086282715 0.21117021
0.044570576 0.086152315 0.21085106
0.044978108 0.086108848 0.21074468
0.045385204 0.086065382 0.2106383
0.045861281 0.086152315 0.21085106
0.046384938 0.086326182 0.21127659
0.046910334 0.086500056 0.21170212
0.047389887 0.086586989 0.2119149
0.047870304 0.086673923 0.21212766
0.048303142 0.086673923 0.21212766
0.048760425 0.08671739 0.21223404
0.049218141 0.086760864 0.21234043
0.049651414 0.086760864 0.21234043
0.050084688 0.086760864 0.21234043
0.050467342 0.086673923 0.21212766
0.050849129 0.086586989 0.2119149
0.051255792 0.086543523 0.21180852
0.05171394 0.086586989 0.2119149
0.052224874 0.08671739 0.21223404
0.05276351 0.086891256 0.21265957
0.053277273 0.087021664 0.21297872
0.05371185 0.087021664 0.21297872
0.054119378 0.086978197 0.21287234
0.054499209 0.086891256 0.21265957
0.054878175 0.086804323 0.21244681
0.055283971 0.086760864 0.21234043
0.055745158 0.086804323 0.21244681
0.056206778 0.08684779 0.21255319
0.056725532 0.086978197 0.21287234
0.057274155 0.087152064 0.21329787
0.057824515 0.087325938 0.21372341
0.058318608 0.087412864 0.21393616
0.058755137 0.087412864 0.21393616
0.059191667 0.087412864 0.21393616
0.059657849 0.087456338 0.21404256
0.060124464 0.087499805 0.21414894
0.060561426 0.087499805 0.21414894
0.06096809 0.087456338 0.21404256
0.061374314 0.087412864 0.21393616
0.061810844 0.087412864 0.21393616
0.062340233 0.087543271 0.21425532
0.062870927 0.087673672 0.21457447
0.063371532 0.087760605 0.21478723
0.063746594 0.087673672 0.21457447
0.064120777 0.087586738 0.2143617
0.064430021 0.087412864 0.21393616
0.064769782 0.087282471 0.21361703
0.065205663 0.087282471 0.21361703
0.065641545 0.087282471 0.21361703
0.066110328 0.087325938 0.21372341
0.0665133 0.087282471 0.21361703
0.06684915 0.087152064 0.21329787
0.11303062 0.11875284 0.2906383
0.11362366 0.11875284 0.2906383
0.11413308 0.1186659 0.29042554
0.11455758 0.11849203 0.28999999
0.11498036 0.11831817 0.28957447
0.11561368 0.11836163 0.28968084
0.11663152 0.11879631 0.29074469
0.1176537 0.11923098 0.29180852
0.11846467 0.11944832 0.29234043
0.11906118 0.11944832 0.29234043
0.1218303 0.093976445 0.23
0.12224303 0.093932971 0.22989361
0.12254178 0.093802571 0.22957447
0.1228392 0.093672171 0.22925532
0.12307812 0.093498297 0.22882979
0.12348761 0.09345483 0.22872341
-0.14227559 0.11480269 0.27957445
-0.14181298 0.11489007 0.27978724
-0.14129578 0.11493374 0.27989361
-0.14067118 0.11489007 0.27978724
-0.13999373 0.11480269 0.27957445
-0.13926412 0.11467165 0.27925533
-0.13858864 0.11458427 0.27904254
-0.13791402 0.1144969 0.27882978
-0.13724028 0.11440954 0.27861702
-0.1365674 0.11432217 0.27840427
-0.13584343 0.11419111 0.27808511
-0.13522424 0.11414742 0.27797872
-0.13455397 0.11406006 0.27776596
-0.13393588 0.11401637 0.27765957
-0.13336933 0.11401637 0.27765957
-0.13290454 0.11410375 0.27787235
-0.13254021 0.11427848 0.27829787
-0.13227504 0.11454059 0.27893618
-0.13195704 0.11475901 0.27946809
-0.13148682 0.11484638 0.27968085
-0.13091613 0.11484638 0.27968085
-0.1302463 0.11475901 0.27946809
-0.12962669 0.11471532 0.2793617
-0.12905666 0.11471532 0.2793617
-0.12858449 0.11480269 0.27957445
-0.12811145 0.11489007 0.27978724
-0.12763755 0.11497743 0.28
-0.12721105 0.11510849 0.28031915
-0.12678325 0.11523955 0.28063831
-0.12644984 0.11545797 0.28117022
-0.12606661 0.1156327 0.28159574
-0.12558685 0.11572007 0.28180853
-0.12505902 0.11576375 0.28191489
-0.12453076 0.11580744 0.28202128
-0.12400205 0.11585112 0.28212765
-0.069746099 0.078675665 0.19159575
-0.069316648 0.078631982 0.19148937
-0.068811044 0.078500934 0.19117022
-0.068306737 0.078369878 0.19085106
-0.067841597 0.078282513 0.1906383
-0.067414962 0.078238823 0.19053191
-0.06702619 0.078238823 0.19053191
-0.066749036 0.078369878 0.19085106
-0.066470586 0.078500934 0.19117022
-0.066190824 0.078631982 0.19148937
-0.065836653 0.078675665 0.19159575
-0.065445706 0.078675665 0.19159575
-0.064946398 0.078544617 0.19127659
-0.064484298 0.078457251 0.19106384
-0.064058751 0.078413561 0.19095744
-0.035979625 0.12397643 0.3019149
-0.035376035 0.12402011 0.30202127
-0.034784261 0.12410749 0.30223405
-0.034179587 0.12415116 0.30234042
-0.033562671 0.12415116 0.30234042
-0.032934166 0.12410749 0.30223405
-0.032317467 0.12410749 0.30223405
-0.031700768 0.12410749 0.30223405
-0.03108407 0.12410749 0.30223405
-0.020186886 0.12161747 0.2961702
-0.019568492 0.1215301 0.29595745
-0.018957784 0.12148641 0.29585105
-0.01834091 0.12139904 0.29563829
-0.017731288 0.12135536 0.29553193
-0.017115932 0.12126799 0.29531914
-0.016507396 0.12122431 0.29521278
-0.015905024 0.12122431 0.29521278
-0.015308167 0.12126799 0.29531914
-0.014700281 0.12122431 0.29521278
-0.014077587 0.12104957 0.29478723
-0.013446904 0.12078746 0.29414892
-0.012818826 0.12052536 0.29351065
-0.01220664 0.1203943 0.29319149
-0.011599969 0.12030694 0.29297873
-0.01100615 0.12035061 0.2930851
-0.010423232 0.12052536 0.29351065
-0.0098385764 0.12070009 0.29393616
-0.0092454962 0.12078746 0.29414892
-0.0050162161 0.081384107 0.19819149
-0.0046241903 0.081602521 0.19872341
-0.004229994 0.081820942 0.19925532
-0.0038315854 0.081995681 0.19968085
-0.0034241434 0.081995681 0.19968085
-0.0030150942 0.081951998 0.19957447
-0.0026023085 0.08177726 0.19914894
-0.0021912595 0.081602521 0.19872341
-0.0017838591 0.081515156 0.19851063
0.040636864 0.086451501 0.21053192
0.041087199 0.086495183 0.2106383
0.041600872 0.086669922 0.21106383
0.042095099 0.086800978 0.21138299
0.04256922 0.086888343 0.21159574
0.043000974 0.086888343 0.21159574
0.043410894 0.08684466 0.21148936
0.043820377 0.086800978 0.21138299
0.044184886 0.086669922 0.21106383
0.044548091 0.086538866 0.21074468
0.044932697 0.086451501 0.21053192
0.045339357 0.08640781 0.21042553
0.045815002 0.086495183 0.2106383
0.046338227 0.086669922 0.21106383
0.046863187 0.08684466 0.21148936
0.047389887 0.087019399 0.2119149
0.047846299 0.087063082 0.21202128
0.04827892 0.087063082 0.21202128
0.048711542 0.087063082 0.21202128
0.049144164 0.087063082 0.21202128
0.049626537 0.087150447 0.21223404
0.050059594 0.087150447 0.21223404
0.050467342 0.087106764 0.21212766
0.050849129 0.087019399 0.2119149
0.051230043 0.086932026 0.21170212
0.051687978 0.086975716 0.21180852
0.052172519 0.087063082 0.21202128
0.052710723 0.08723782 0.21244681
0.05322405 0.087368868 0.21276596
0.05371185 0.087456234 0.21297872
0.054119378 0.087412551 0.21287234
0.054499209 0.087325186 0.21265957
0.054905657 0.087281503 0.21255319
0.055311669 0.08723782 0.21244681
0.055745158 0.08723782 0.21244681
0.056206778 0.087281503 0.21255319
0.056725532 0.087412551 0.21287234
0.05724559 0.087543607 0.21319149
0.057766944 0.087674655 0.21351063
0.058260608 0.087762028 0.21372341
0.05872592 0.087805711 0.21382979
0.059162233 0.087805711 0.21382979
0.059628196 0.087849393 0.21393616
0.060064726 0.087849393 0.21393616
0.060501255 0.087849393 0.21393616
0.060937785 0.087849393 0.21393616
0.061343797 0.087805711 0.21382979
0.061810844 0.087849393 0.21393616
0.06227833 0.087893084 0.21404256
0.062777415 0.087980449 0.21425532
0.063277371 0.088067822 0.21446809
0.063714989 0.088067822 0.21446809
0.064120777 0.088024132 0.2143617
0.064494103 0.087936766 0.21414894
0.06486655 0.087849393 0.21393616
0.06530308 0.087849393 0.21393616
0.065772302 0.087893084 0.21404256
0.066241957 0.087936766 0.21414894
0.066645794 0.087893084 0.21404256
0.066982515 0.087762028 0.21372341
0.06731794 0.087630972 0.21340425
0.067685835 0.087543607 0.21319149
0.068052858 0.087456234 0.21297872
0.068453223 0.087412551 0.21287234
0.11269964 0.1189964 0.28978723
0.11324934 0.11895271 0.28968084
0.11379863 0.11890903 0.28957447
0.11430544 0.11882167 0.28936172
0.11485364 0.11877798 0.28925532
0.11557122 0.11890903 0.28957447
0.1165035 0.11925851 0.29042554
0.11731056 0.11947693 0.29095745
0.11786114 0.11943324 0.29085106
0.1182813 0.11925851 0.29042554
0.12171759 0.094358377 0.22978723
0.1221299 0.094314694 0.22968085
0.1224282 0.094183639 0.2293617
0.1226682 0.0940089 0.22893617
0.12290646 0.093834162 0.22851063
0.12320042 0.093703113 0.22819149
-0.14257427 0.11515365 0.27904254
-0.14205904 0.11519755 0.27914894
-0.14154337 0.11524146 0.27925533
-0.14091985 0.11519755 0.27914894
-0.14029676 0.11515365 0.27904254
-0.13956758 0.11502195 0.27872342
-0.13889274 0.11493414 0.27851063
-0.13827163 0.11489025 0.27840427
-0.13765092 0.11484634 0.27829787
-0.13708307 0.11484634 0.27829787
-0.13646302 0.11480244 0.27819148
-0.13579145 0.11471463 0.27797872
-0.13512075 0.11462683 0.27776596
-0.13445091 0.11453903 0.2775532
-0.13378192 0.11445122 0.27734041
-0.13321602 0.11445122 0.27734041
-0.1327519 0.11453903 0.2775532
-0.13243888 0.11475854 0.27808511
-0.13222459 0.11506584 0.27882978
-0.13190681 0.11528535 0.2793617
-0.13148682 0.11541706 0.27968085
-0.13091613 0.11541706 0.27968085
-0.13029587 0.11537315 0.27957445
-0.12967606 0.11532926 0.27946809
-0.12910581 0.11532926 0.27946809
-0.12858449 0.11537315 0.27957445
-0.12811145 0.11546096 0.27978724
-0.12763755 0.11554877 0.28
-0.12716277 0.11563656 0.28021276
-0.12673518 0.11576827 0.28053191
-0.12635416 0.11594388 0.28095746
-0.12597136 0.11611948 0.28138298
-0.12553944 0.11625119 0.28170213
-0.12505902 0.11633899 0.28191489
-0.069746099 0.079066612 0.19159575
-0.069316648 0.079022713 0.19148937
-0.068811044 0.078891009 0.19117022
-0.068306737 0.078759298 0.19085106
-0.067841597 0.0786715 0.1906383
-0.067377321 0.078583695 0.19042553
-0.066988766 0.078583695 0.19042553
-0.066711836 0.078715399 0.19074468
-0.066433594 0.07884711 0.19106384
-0.066190824 0.079022713 0.19148937
-0.065873206 0.079110511 0.19170213
-0.06540937 0.079022713 0.19148937
-0.064874157 0.07884711 0.19106384
-0.064304769 0.078627594 0.19053191
-0.06380894 0.078495897 0.19021277
-0.036030333 0.12476808 0.30234042
-0.035413418 0.12476808 0.30234042
-0.034796502 0.12476808 0.30234042
-0.034179587 0.12476808 0.30234042
-0.033550862 0.12472418 0.30223405
-0.03292257 0.12468027 0.30212766
-0.032317467 0.12472418 0.30223405
-0.031711925 0.12476808 0.30234042
-0.031095009 0.12476808 0.30234042
-0.020179635 0.12217789 0.29606384
-0.019554425 0.12204619 0.29574469
-0.018937334 0.12195839 0.29553193
-0.018327711 0.12191448 0.29542553
-0.01771214 0.12182669 0.29521278
-0.017097436 0.12173887 0.29499999
-0.01648955 0.12169497 0.29489362
-0.01589356 0.12173887 0.29499999
-0.015297138 0.12178278 0.29510638
-0.014689685 0.12173887 0.29499999
-0.014067427 0.12156327 0.29457447
-0.013432316 0.12125596 0.2938298
-0.012804888 0.12099255 0.29319149
-0.012188924 0.12081694 0.29276595
-0.011583121 0.12072914 0.29255319
-0.010990171 0.12077305 0.29265958
-0.010404343 0.12090475 0.29297873
-0.0098207723 0.12108035 0.29340425
-0.0050135232 0.081744604 0.1980851
-0.0046241903 0.082008012 0.19872341
-0.004232252 0.082271419 0.1993617
-0.0038295442 0.082359225 0.19957447
-0.0034223192 0.082359225 0.19957447
-0.0030102725 0.082227521 0.19925532
-0.0025981381 0.08205191 0.19882978
-0.0021853945 0.08178851 0.19819149
-0.0017781233 0.081656799 0.19787234
0.044525601 0.086924985 0.2106383
0.044909991 0.086837173 0.21042553
0.045316435 0.086793274 0.21031915
0.045768723 0.086837173 0.21042553
0.046291515 0.087012783 0.21085106
0.046839617 0.087232292 0.21138299
0.047366098 0.087407902 0.21180852
0.047822293 0.087451801 0.2119149
0.048230473 0.087407902 0.21180852
0.048638217 0.087363996 0.21170212
0.049094848 0.087407902 0.21180852
0.049601663 0.087539598 0.21212766
0.050084688 0.087627403 0.21234043
0.050517961 0.087627403 0.21234043
0.050874654 0.0874957 0.21202128
0.051281534 0.087451801 0.2119149
0.051687978 0.087407902 0.21180852
0.052172519 0.0874957 0.21202128
0.052684329 0.087627403 0.21234043
0.053197436 0.087759107 0.21265957
0.053685021 0.087846912 0.21287234
0.054146424 0.087890811 0.21297872
0.05455374 0.087846912 0.21287234
0.054933134 0.087759107 0.21265957
0.055339362 0.087715209 0.21255319
0.055773072 0.087715209 0.21255319
0.056234911 0.087759107 0.21265957
0.056697186 0.087803014 0.21276596
0.057217021 0.08793471 0.2130851
0.057738163 0.088066421 0.21340425
0.058231611 0.088154227 0.21361703
0.058696706 0.088198125 0.21372341
0.059162233 0.088242024 0.21382979
0.059568897 0.088198125 0.21372341
0.059975125 0.088154227 0.21361703
0.060411002 0.088154227 0.21361703
0.06084688 0.088154227 0.21361703
0.061313275 0.088198125 0.21372341
0.061749373 0.088198125 0.21372341
0.06221642 0.088242024 0.21382979
0.062683903 0.088285923 0.21393616
0.063214593 0.088417634 0.21425532
0.063714989 0.088505439 0.21446809
0.064184427 0.088549338 0.21457447
0.064590216 0.088505439 0.21446809
0.065027833 0.088505439 0.21446809
0.06549792 0.088549338 0.21457447
0.065968439 0.088593237 0.21468085
0.066439398 0.088637136 0.21478723
0.066877663 0.088637136 0.21478723
0.067215905 0.088505439 0.21446809
0.067519292 0.088329829 0.21404256
0.067820936 0.088154227 0.21361703
0.068154834 0.088022523 0.21329787
0.068555854 0.087978616 0.21319149
0.069025286 0.088022523 0.21329787
0.069564447 0.088154227 0.21361703
0.07324446 0.089998089 0.21808511
0.073689453 0.089998089 0.21808511
0.11253415 0.1194121 0.28936172
0.11304139 0.11932429 0.28914893
0.11350597 0.11919259 0.28882977
0.1140533 0.11914869 0.28872341
0.11468466 0.11919259 0.28882977
0.11548632 0.1194121 0.28936172
0.11633279 0.1196755 0.28999999
0.11696742 0.11971941 0.29010639
0.1172145 0.1193682 0.28925532
0.11750143 0.11906089 0.28851065
0.12143584 0.094607748 0.22925532
0.1219602 0.094651647 0.2293617
0.12231464 0.094563842 0.22914894
0.1225542 0.094388239 0.22872341
0.12279203 0.094212629 0.22829787
0.12308555 0.094080925 0.22797872
-0.14287078 0.11550243 0.27851063
-0.14235686 0.11554655 0.27861702
-0.14184248 0.11559068 0.27872342
-0.14121984 0.11554655 0.27861702
-0.14059763 0.11550243 0.27851063
-0.13992235 0.11541419 0.27829787
-0.13930123 0.11537007 0.27819148
-0.13862748 0.11528184 0.27797872
-0.13800745 0.11523773 0.27787235
-0.13744046 0.11523773 0.27787235
-0.13692586 0.11528184 0.27797872
-0.13635866 0.11528184 0.27797872
-0.13573949 0.11523773 0.27787235
-0.13506898 0.11514948 0.27765957
-0.13439937 0.11506125 0.27744681
-0.13373062 0.11497302 0.27723405
-0.13321602 0.11501712 0.27734041
-0.1327519 0.11510537 0.2775532
-0.13248953 0.11537007 0.27819148
-0.13222459 0.11563478 0.27882978
-0.13190681 0.11585538 0.2793617
-0.13148682 0.11598774 0.27968085
-0.13096595 0.11603186 0.27978724
-0.13034546 0.11598774 0.27968085
-0.12977478 0.11598774 0.27968085
-0.12925325 0.11603186 0.27978724
-0.12873128 0.11607597 0.27989361
-0.1282576 0.11616421 0.2801064
-0.12773453 0.11620833 0.28021276
-0.12716277 0.11620833 0.28021276
-0.12663907 0.11625245 0.28031915
-0.12621062 0.11638481 0.28063831
-0.12578087 0.11651716 0.28095746
-0.069707379 0.079413444 0.19148937
-0.069278136 0.079369314 0.19138297
-0.068811044 0.079281084 0.19117022
-0.068306737 0.079148725 0.19085106
-0.067841597 0.079060495 0.1906383
-0.067377321 0.07897225 0.19042553
-0.066988766 0.07897225 0.19042553
-0.066674627 0.079060495 0.1906383
-0.066433594 0.079236969 0.19106384
-0.066190824 0.079413444 0.19148937
-0.065836653 0.079457559 0.19159575
-0.06540937 0.079413444 0.19148937
-0.064801909 0.079148725 0.19085106
-0.064232968 0.078928135 0.19031915
-0.036030333 0.12538499 0.30234042
-0.035413418 0.12538499 0.30234042
-0.034772016 0.12529676 0.30212766
-0.034143507 0.12525263 0.30202127
-0.033527244 0.12525263 0.30202127
-0.032934166 0.12534088 0.30223405
-0.032340217 0.12542911 0.30244681
-0.031734239 0.12547323 0.30255318
-0.020776276 0.12273788 0.29595745
-0.020157883 0.12264965 0.29574469
-0.019533323 0.12251729 0.29542553
-0.018916884 0.12242905 0.29521278
-0.01830131 0.12234081 0.29499999
-0.017686607 0.12225258 0.29478723
-0.017072774 0.12216434 0.29457447
-0.016465755 0.12212022 0.29446808
-0.015870634 0.12216434 0.29457447
-0.015280594 0.12225258 0.29478723
-0.014673795 0.12220846 0.29468086
-0.014047105 0.12198786 0.29414892
-0.013417725 0.12172315 0.29351065
-0.012790949 0.12145844 0.29287234
-0.012175637 0.12128197 0.29244682
-0.011566273 0.12114961 0.29212767
-0.01097419 0.12119373 0.29223403
-0.010385454 0.12128197 0.29244682
-0.0098029682 0.12145844 0.29287234
-0.0054002516 0.081884079 0.19744681
-0.0050108307 0.082104668 0.19797872
-0.0046217148 0.082369387 0.19861703
-0.004229994 0.082634091 0.19925532
-0.003827503 0.082722336 0.19946809
-0.0034186705 0.082678214 0.1993617
-0.0030070583 0.082545862 0.19904256
-0.0025925776 0.082281142 0.19840425
-0.0021807023 0.082016438 0.19776596
-0.0017733434 0.081839964 0.19734043
0.045293517 0.087178305 0.21021277
0.045768723 0.087266542 0.21042553
0.046268158 0.087398902 0.21074468
0.046839617 0.087663613 0.21138299
0.047366098 0.087840088 0.21180852
0.047798283 0.087840088 0.21180852
0.048182022 0.08775185 0.21159574
0.048589338 0.087707728 0.21148936
0.049094848 0.087840088 0.21180852
0.049626537 0.088016555 0.21223404
0.050159965 0.088193029 0.21265957
0.050593887 0.088193029 0.21265957
0.050976761 0.088104799 0.21244681
0.051333018 0.08797244 0.21212766
0.05171394 0.087884203 0.2119149
0.052146345 0.087884203 0.2119149
0.052631538 0.08797244 0.21212766
0.053144213 0.088104799 0.21244681
0.053658191 0.088237152 0.21276596
0.054146424 0.088325389 0.21297872
0.05455374 0.088281274 0.21287234
0.05496062 0.088237152 0.21276596
0.05536706 0.088193029 0.21265957
0.055800986 0.088193029 0.21265957
0.056263044 0.088237152 0.21276596
0.056725532 0.088281274 0.21287234
0.057188459 0.088325389 0.21297872
0.057709381 0.088457748 0.21329787
0.058231611 0.088590108 0.21361703
0.058696706 0.088634223 0.21372341
0.0591328 0.088634223 0.21372341
0.059539244 0.088590108 0.21361703
0.059915386 0.088501863 0.21340425
0.060350828 0.088501863 0.21340425
0.060786273 0.088501863 0.21340425
0.061282758 0.088590108 0.21361703
0.061718635 0.088590108 0.21361703
0.062185466 0.088634223 0.21372341
0.062683903 0.088722453 0.21393616
0.063214593 0.088854812 0.21425532
0.063746594 0.088987172 0.21457447
0.064248063 0.089075401 0.21478723
0.064686328 0.089075401 0.21478723
0.065124601 0.089075401 0.21478723
0.065595344 0.089119531 0.21489362
0.066099204 0.089207761 0.21510638
0.066603929 0.089295998 0.21531914
0.067010157 0.089251876 0.21521276
0.067382611 0.089163646 0.215
0.067720637 0.089031287 0.21468085
0.068023585 0.088854812 0.21425532
0.068324797 0.088678338 0.21382979
0.068726897 0.088634223 0.21372341
0.069162995 0.088634223 0.21372341
0.06970302 0.088766582 0.21404256
0.070279211 0.088943057 0.21446809
0.070997447 0.089295998 0.21531914
0.071860336 0.089825422 0.21659574
0.072550878 0.090134248 0.21734042
0.073101543 0.090266608 0.21765958
0.073581614 0.090310723 0.21776596
0.073953636 0.090222493 0.2175532
0.074288398 0.090090133 0.21723405
0.11186139 0.11991429 0.28914893
0.1124514 0.11991429 0.28914893
0.11291662 0.11978193 0.28882977
0.11338056 0.11964958 0.28851065
0.11392722 0.11960546 0.28840426
0.11460018 0.1196937 0.28861701
0.11540139 0.11991429 0.28914893
0.11620476 0.12013488 0.28968084
0.11675296 0.12009077 0.28957447
0.11699895 0.11973782 0.28872341
0.12126679 0.094943173 0.22893617
0.1217905 0.094987296 0.22904256
0.12220106 0.094943173 0.22893617
0.1224972 0.094810821 0.22861703
0.12273481 0.094634347 0.22819149
0.12308555 0.094546109 0.22797872
0.12349308 0.094501995 0.22787234
-0.14316513 0.11584905 0.27797872
-0.14270706 0.11593771 0.27819148
-0.14219379 0.11598206 0.27829787
-0.14157179 0.11593771 0.27819148
-0.14095023 0.11589339 0.27808511
-0.14032911 0.11584905 0.27797872
-0.13970841 0.11580472 0.27787235
-0.13903488 0.11571603 0.27765957
-0.13841528 0.11567171 0.2775532
-0.1377961 0.11562737 0.27744681
-0.13722998 0.11562737 0.27744681
-0.13671626 0.11567171 0.2775532
-0.1362021 0.11571603 0.27765957
-0.13563554 0.11571603 0.27765957
-0.13501725 0.11567171 0.2775532
-0.13434783 0.11558302 0.27734041
-0.13378192 0.11558302 0.27734041
-0.13326713 0.11562737 0.27744681
-0.13290454 0.11580472 0.27787235
-0.13259088 0.11602639 0.27840427
-0.13232549 0.1162924 0.27904254
-0.13200726 0.11651408 0.27957445
-0.13153684 0.11660276 0.27978724
-0.13101573 0.11664709 0.27989361
-0.13049421 0.11669143 0.28
-0.12997223 0.11673576 0.2801064
-0.12949897 0.11682443 0.28031915
-0.12902485 0.1169131 0.28053191
-0.12854986 0.11700177 0.28074467
-0.127977 0.11700177 0.28074467
-0.12730761 0.1169131 0.28053191
-0.12668712 0.11686876 0.28042552
-0.12611492 0.11686876 0.28042552
-0.069629923 0.07971549 0.19127659
-0.069201119 0.079671159 0.19117022
-0.068734452 0.079582483 0.19095744
-0.068268664 0.079493821 0.19074468
-0.067803741 0.079405144 0.19053191
-0.067339681 0.079316474 0.19031915
-0.066988766 0.079360805 0.19042553
-0.066674627 0.079449482 0.1906383
-0.066396601 0.079582483 0.19095744
-0.066117279 0.07971549 0.19127659
-0.065763541 0.079759829 0.19138297
-0.065336689 0.07971549 0.19127659
-0.064801909 0.079538152 0.19085106
-0.064268872 0.079360805 0.19042553
-0.035966944 0.12578022 0.30180851
-0.035351112 0.12578022 0.30180851
-0.034723043 0.12573591 0.30170214
-0.034095403 0.12569156 0.30159575
-0.033503626 0.12578022 0.30180851
-0.032934166 0.12595758 0.30223405
-0.032362968 0.12613492 0.30265957
-0.031756561 0.12617926 0.30276597
-0.020731466 0.12307575 0.29531914
-0.020121627 0.12303142 0.29521278
-0.019505186 0.12294275 0.29499999
-0.018889615 0.12285408 0.29478723
-0.018274913 0.12276541 0.29457447
-0.017661078 0.12267674 0.29436171
-0.017048109 0.12258806 0.29414892
-0.016441962 0.12254373 0.29404256
-0.015847707 0.12258806 0.29414892
-0.015253022 0.1226324 0.29425532
-0.014652604 0.1226324 0.29425532
-0.014026784 0.12241072 0.2937234
-0.013398272 0.12214471 0.2930851
-0.012777011 0.12192303 0.29255319
-0.012162349 0.12174569 0.29212767
-0.011557848 0.12165701 0.29191488
-0.010958211 0.12161268 0.29180852
-0.010366563 0.12165701 0.29191488
-0.0054002516 0.082286961 0.19744681
-0.0050081383 0.082464308 0.19787234
-0.0046192394 0.082730316 0.19851063
-0.0042254771 0.082952 0.19904256
-0.0038213788 0.082996331 0.19914894
-0.003415022 0.082996331 0.19914894
-0.0030038436 0.082863323 0.19882978
-0.0025897976 0.082597315 0.19819149
-0.0021783561 0.082331292 0.19755319
-0.0017714314 0.082153954 0.19712766
0.048613776 0.088183604 0.21159574
0.049119506 0.088316612 0.2119149
0.049701165 0.08858262 0.21255319
0.050260335 0.088804297 0.2130851
0.050720438 0.088848643 0.21319149
0.051053341 0.088671297 0.21276596
0.051358763 0.088449612 0.21223404
0.051687978 0.088272274 0.21180852
0.052120168 0.088272274 0.21180852
0.052578751 0.088316612 0.2119149
0.053117603 0.088493951 0.21234043
0.053658191 0.088671297 0.21276596
0.054146424 0.088759966 0.21297872
0.054581001 0.088759966 0.21297872
0.054988097 0.088715628 0.21287234
0.055422455 0.088715628 0.21287234
0.05588473 0.088759966 0.21297872
0.056319304 0.088759966 0.21297872
0.056782227 0.088804297 0.2130851
0.057217021 0.088804297 0.2130851
0.057709381 0.088892974 0.21329787
0.058202606 0.088981643 0.21351063
0.058696706 0.08907032 0.21372341
0.059103366 0.089025982 0.21361703
0.05950959 0.088981643 0.21351063
0.059885517 0.088892974 0.21329787
0.060320746 0.088892974 0.21329787
0.060816575 0.088981643 0.21351063
0.061282758 0.089025982 0.21361703
0.061749373 0.08907032 0.21372341
0.062185466 0.08907032 0.21372341
0.062715076 0.089203328 0.21404256
0.063245982 0.089336328 0.2143617
0.063778192 0.089469336 0.21468085
0.064279892 0.089558013 0.21489362
0.064686328 0.089513674 0.21478723
0.065124601 0.089513674 0.21478723
0.065595344 0.089558013 0.21489362
0.066099204 0.089646682 0.21510638
