# .PCD v0.7 - Point Cloud Data file format
VERSION 0.7
FIELDS x y z
SIZE 4 4 4
TYPE F F F
COUNT 1 1 1
WIDTH 1310
HEIGHT 1
VIEWPOINT 0 0 0 1 0 0 0
POINTS 1310
DATA ascii
-0.074406892 -0.075539827 0.23617022
-0.073958293 -0.075573854 0.2362766
-0.073509261 -0.075607881 0.23638298
-0.07305979 -0.075641908 0.23648936
-0.072577246 -0.075641908 0.23648936
-0.072127126 -0.075675942 0.23659575
-0.071708791 -0.075743988 0.23680851
-0.071321584 -0.075846076 0.23712766
-0.070996627 -0.07601621 0.23765957
-0.070669509 -0.076186337 0.23819149
-0.070308872 -0.076322451 0.23861702
-0.069884241 -0.076390505 0.23882979
-0.069396913 -0.076390505 0.23882979
-0.068909593 -0.076390505 0.23882979
-0.068391785 -0.076356471 0.2387234
-0.067934945 -0.076390505 0.23882979
-0.067507707 -0.076458558 0.23904255
-0.067079596 -0.076526612 0.23925532
-0.06668023 -0.076628692 0.23957446
-0.066279568 -0.076730773 0.23989362
-0.065935947 -0.076900907 0.24042553
-0.065561198 -0.077037014 0.24085106
-0.065184712 -0.077173121 0.24127659
-0.064720921 -0.077207148 0.24138297
-0.064228386 -0.077207148 0.24138297
-0.063679673 -0.077139094 0.24117021
-0.063131832 -0.077071041 0.24095745
-0.062584855 -0.077002987 0.24074468
-0.062093623 -0.077002987 0.24074468
-0.061629612 -0.077037014 0.24085106
-0.061165169 -0.077071041 0.24095745
-0.06070029 -0.077105068 0.24106383
-0.060234979 -0.077139094 0.24117021
-0.059742879 -0.077139094 0.24117021
-0.059250779 -0.077139094 0.24117021
-0.05875868 -0.077139094 0.24117021
-0.05826658 -0.077139094 0.24117021
-0.057799961 -0.077173121 0.24127659
-0.057332914 -0.077207148 0.24138297
-0.056890484 -0.077275202 0.24159575
0.048214115 -0.096160159 0.30063829
0.048723895 -0.095956005 0.30000001
0.049143586 -0.095581703 0.29882979
0.049593929 -0.095275462 0.29787233
0.05009415 -0.095071293 0.29723403
0.050664354 -0.09500324 0.29702127
0.20284764 -0.10204682 0.31904256
0.20302364 -0.10180863 0.31829786
0.20333275 -0.1016385 0.31776595
0.20384458 -0.10157045 0.31755319
-0.077999093 -0.074347928 0.23393618
-0.077662766 -0.074483164 0.23436171
-0.077289663 -0.074584588 0.23468085
-0.076915264 -0.074686021 0.235
-0.076504961 -0.074753642 0.23521277
-0.076059401 -0.074787453 0.23531915
-0.07564757 -0.074855074 0.23553191
-0.075234883 -0.074922696 0.23574468
-0.074855052 -0.075024121 0.23606382
-0.074473917 -0.075125553 0.23638298
-0.074024886 -0.075159356 0.23648936
-0.073542342 -0.075159356 0.23648936
-0.07305979 -0.075159356 0.23648936
-0.072577246 -0.075159356 0.23648936
-0.072127126 -0.075193174 0.23659575
-0.071708791 -0.075260788 0.23680851
-0.07138557 -0.075429842 0.23734042
-0.071060196 -0.075598896 0.23787235
-0.070732638 -0.075767942 0.23840426
-0.070371561 -0.075903177 0.23882979
-0.069946498 -0.075970799 0.23904255
-0.069427826 -0.075936988 0.23893617
-0.068909593 -0.075903177 0.23882979
-0.068422265 -0.075903177 0.23882979
-0.067934945 -0.075903177 0.23882979
-0.067477658 -0.075936988 0.23893617
-0.067049772 -0.076004609 0.23914893
-0.066621013 -0.076072231 0.2393617
-0.066220783 -0.076173663 0.23968086
-0.065877602 -0.076342709 0.24021277
-0.065532245 -0.076511756 0.24074468
-0.065127231 -0.076613188 0.24106383
-0.0646924 -0.076680802 0.24127659
-0.064171776 -0.076646999 0.24117021
-0.063651584 -0.076613188 0.24106383
-0.063103959 -0.076545566 0.24085106
-0.062584855 -0.076511756 0.24074468
-0.062093623 -0.076511756 0.24074468
-0.061602391 -0.076511756 0.24074468
-0.061138164 -0.076545566 0.24085106
-0.060673505 -0.076579377 0.24095745
-0.060208406 -0.076613188 0.24106383
-0.059742879 -0.076646999 0.24117021
-0.059224643 -0.076613188 0.24106383
-0.058706842 -0.076579377 0.24095745
-0.05818947 -0.076545566 0.24085106
-0.057748996 -0.076613188 0.24106383
-0.057307646 -0.076680802 0.24127659
-0.056890484 -0.076782234 0.24159575
-0.056422349 -0.076816045 0.24170212
-0.055953778 -0.076849855 0.2418085
-0.055484779 -0.076883666 0.2419149
-0.055039521 -0.076951288 0.24212766
-0.054593403 -0.077018909 0.24234043
-0.05419391 -0.077154145 0.24276596
0.048214115 -0.095546715 0.30063829
0.048706613 -0.095310047 0.29989362
0.049108598 -0.094904333 0.29861704
0.049523082 -0.094532423 0.29744682
0.050040368 -0.094363376 0.29691491
0.050609916 -0.094295748 0.29670212
0.20264474 -0.1012944 0.31872341
0.20288794 -0.10109154 0.3180851
0.20319661 -0.10092249 0.31755319
0.20370799 -0.10085487 0.31734043
-0.076984905 -0.074273698 0.23521277
-0.076539561 -0.074307293 0.23531915
-0.07612817 -0.074374475 0.23553191
-0.07564757 -0.074374475 0.23553191
-0.075234883 -0.074441664 0.23574468
-0.074855052 -0.07454244 0.23606382
-0.074473917 -0.074643217 0.23638298
-0.074024886 -0.074676812 0.23648936
-0.073575422 -0.074710406 0.23659575
-0.073092662 -0.074710406 0.23659575
-0.072609894 -0.074710406 0.23659575
-0.072127126 -0.074710406 0.23659575
-0.071708791 -0.074777588 0.23680851
-0.07138557 -0.074945554 0.23734042
-0.071123749 -0.075180702 0.23808511
-0.07079576 -0.075348668 0.23861702
-0.07043425 -0.075483039 0.23904255
-0.069977619 -0.075516634 0.23914893
-0.069458738 -0.075483039 0.23904255
-0.068940282 -0.075449444 0.23893617
-0.068422265 -0.075415857 0.23882979
-0.067934945 -0.075415857 0.23882979
-0.067447618 -0.075415857 0.23882979
-0.066960298 -0.075415857 0.23882979
-0.066502579 -0.075449444 0.23893617
-0.066103213 -0.075550228 0.23925532
-0.065760896 -0.075718194 0.23978724
-0.06538745 -0.075852565 0.24021277
-0.065012269 -0.075986937 0.2406383
-0.064578302 -0.076054119 0.24085106
-0.064086854 -0.076054119 0.24085106
-0.063623495 -0.076087713 0.24095745
-0.063103959 -0.076054119 0.24085106
-0.062612511 -0.076054119 0.24085106
-0.062093623 -0.076020524 0.24074468
-0.061629612 -0.076054119 0.24085106
-0.061192174 -0.076121308 0.24106383
-0.060753863 -0.07618849 0.24127659
-0.060314689 -0.076255679 0.24148937
-0.059821937 -0.076255679 0.24148937
-0.059276912 -0.07618849 0.24127659
-0.058706842 -0.076087713 0.24095745
-0.05816377 -0.076020524 0.24074468
-0.057698023 -0.076054119 0.24085106
-0.057282381 -0.076154895 0.24117021
-0.056865431 -0.076255679 0.24148937
-0.056397516 -0.076289266 0.24159575
-0.055953778 -0.076356448 0.2418085
-0.055484779 -0.07639005 0.2419149
-0.055039521 -0.076457232 0.24212766
-0.054617368 -0.076558009 0.24244681
-0.05419391 -0.076658793 0.24276596
-0.053792678 -0.076793164 0.2431915
-0.053413026 -0.076961122 0.24372341
-0.053031202 -0.077129088 0.24425532
-0.052555684 -0.077162683 0.2443617
-0.052057073 -0.077162683 0.2443617
-0.047963046 -0.077800944 0.24638298
-0.047542281 -0.077935316 0.24680851
-0.047099501 -0.078036092 0.24712765
0.048620224 -0.094530165 0.29936171
0.049056113 -0.094194241 0.29829788
0.049505368 -0.093891896 0.29734042
0.050022438 -0.093723938 0.29680851
0.050609916 -0.093690336 0.29670212
0.051196966 -0.093656749 0.29659575
0.20257708 -0.10061046 0.31861702
0.20275223 -0.10037531 0.31787235
0.20312853 -0.10024094 0.3174468
0.2036397 -0.10017376 0.31723404
-0.07612817 -0.073893882 0.23553191
-0.075681739 -0.073927253 0.23563829
-0.075234883 -0.073960632 0.23574468
-0.074855052 -0.07406076 0.23606382
-0.074473917 -0.074160889 0.23638298
-0.074091487 -0.074261017 0.23670213
-0.073641591 -0.074294388 0.23680851
-0.073191255 -0.074327767 0.23691489
-0.072675191 -0.074294388 0.23680851
-0.072191991 -0.074294388 0.23680851
-0.071773216 -0.074361145 0.23702128
-0.07144957 -0.074528024 0.23755319
-0.07118731 -0.074761651 0.23829788
-0.070890449 -0.074961908 0.23893617
-0.070496947 -0.075062037 0.23925532
-0.070008755 -0.075062037 0.23925532
-0.06948965 -0.075028658 0.23914893
-0.068970978 -0.074995279 0.23904255
-0.068452746 -0.074961908 0.23893617
-0.067904681 -0.074895151 0.2387234
-0.067387529 -0.07486178 0.23861702
-0.066870816 -0.074828401 0.23851064
-0.066384144 -0.074828401 0.23851064
-0.065985642 -0.07492853 0.23882979
-0.065615021 -0.075062037 0.23925532
-0.065242663 -0.075195536 0.23968086
-0.064839825 -0.075295664 0.23999999
-0.064407162 -0.075362414 0.24021277
-0.063973628 -0.075429164 0.24042553
-0.063539229 -0.075495921 0.2406383
-0.063076086 -0.075529292 0.24074468
-0.062584855 -0.075529292 0.24074468
-0.062093623 -0.075529292 0.24074468
-0.061629612 -0.075562671 0.24085106
-0.061246179 -0.07569617 0.24127659
-0.060861014 -0.075829677 0.24170212
-0.06044754 -0.075929806 0.24202128
-0.059953704 -0.075929806 0.24202128
-0.059355322 -0.075796299 0.24159575
-0.058732759 -0.075629421 0.24106383
-0.05818947 -0.075562671 0.24085106
-0.057698023 -0.075562671 0.24085106
-0.057307646 -0.07569617 0.24127659
-0.056890484 -0.075796299 0.24159575
-0.056447182 -0.075863048 0.2418085
-0.055978399 -0.075896427 0.2419149
-0.055509176 -0.075929806 0.24202128
-0.055063706 -0.075996555 0.24223404
-0.054617368 -0.076063305 0.24244681
-0.054217655 -0.076196812 0.24287234
-0.05381621 -0.076330312 0.24329787
-0.053436339 -0.07649719 0.24382979
-0.053031202 -0.076630697 0.24425532
-0.052555684 -0.076664068 0.2443617
-0.052057073 -0.076664068 0.2443617
-0.051738031 -0.076931074 0.24521276
-0.051593345 -0.077465087 0.24691489
-0.049539395 -0.078199349 0.24925531
-0.04865412 -0.077598587 0.24734043
-0.047942337 -0.07726483 0.2462766
-0.047521789 -0.077398337 0.24670213
-0.047079224 -0.077498458 0.24702127
-0.046615303 -0.077565216 0.24723405
-0.046150513 -0.077631965 0.24744681
0.048533835 -0.093752451 0.29882979
0.049021117 -0.093518808 0.29808509
0.049523082 -0.093318567 0.29744682
0.050058294 -0.09318506 0.29702127
0.050591774 -0.09305156 0.29659575
0.051123511 -0.092918053 0.2961702
0.20257708 -0.099960335 0.31861702
0.20268437 -0.099693328 0.31776595
0.20299239 -0.09952645 0.31723404
0.20350313 -0.0994597 0.31702128
-0.074191391 -0.073877513 0.23702128
-0.073807001 -0.073976986 0.23734042
-0.07338845 -0.074043304 0.23755319
-0.072871082 -0.074010149 0.23744681
-0.072289281 -0.073910668 0.23712766
-0.071837649 -0.073943824 0.23723404
-0.071481563 -0.074076459 0.23765957
-0.071219094 -0.074308574 0.23840426
-0.07092201 -0.07450752 0.23904255
-0.070528291 -0.074607 0.2393617
-0.070039883 -0.074607 0.2393617
-0.069520563 -0.074573845 0.23925532
-0.068970978 -0.07450752 0.23904255
-0.068452746 -0.074474365 0.23893617
-0.067904681 -0.074408047 0.2387234
-0.067327447 -0.074308574 0.23840426
-0.066811159 -0.074275412 0.23829788
-0.066324927 -0.074275412 0.23829788
-0.065926857 -0.074374884 0.23861702
-0.065556668 -0.07450752 0.23904255
-0.065155789 -0.074607 0.2393617
-0.064724855 -0.074673317 0.23957446
-0.064264543 -0.07470648 0.23968086
-0.063832089 -0.07477279 0.23989362
-0.063426867 -0.07487227 0.24021277
-0.062992468 -0.074938588 0.24042553
-0.062529542 -0.07497175 0.24053192
-0.062066182 -0.075004905 0.2406383
-0.061656836 -0.075104378 0.24095745
-0.061300192 -0.075270176 0.24148937
-0.060968164 -0.075469121 0.24212766
-0.060580391 -0.075601757 0.24255319
-0.060059119 -0.075568601 0.24244681
-0.059433732 -0.075402811 0.2419149
-0.05875868 -0.075170696 0.24117021
-0.05818947 -0.075071223 0.24085106
-0.057748996 -0.075137541 0.24106383
-0.057358183 -0.075270176 0.24148937
-0.056965638 -0.075402811 0.2419149
-0.056521684 -0.075469121 0.24212766
-0.056052245 -0.075502284 0.24223404
-0.055582378 -0.075535446 0.24234043
-0.055136252 -0.075601757 0.24255319
-0.054665297 -0.075634919 0.24265957
-0.054265153 -0.075767554 0.2430851
-0.053863268 -0.07590019 0.24351063
-0.053459652 -0.076032817 0.24393617
-0.053054295 -0.076165453 0.2443617
-0.052601445 -0.076231778 0.24457447
-0.052079737 -0.076198615 0.24446808
-0.051580906 -0.076198615 0.24446808
-0.051104311 -0.076231778 0.24457447
-0.050583251 -0.076198615 0.24446808
-0.050062627 -0.076165453 0.2443617
-0.049585592 -0.076198615 0.24446808
-0.049150843 -0.076298088 0.24478723
-0.048757084 -0.076463886 0.24531914
-0.048361152 -0.076629683 0.24585107
-0.047942337 -0.076762319 0.2462766
-0.047501296 -0.076861791 0.24659574
-0.047058951 -0.076961264 0.24691489
-0.046595246 -0.077027582 0.24712765
-0.046130672 -0.077093899 0.24734043
-0.045684855 -0.077193379 0.24765958
-0.045237735 -0.077292852 0.24797872
-0.044789311 -0.077392325 0.24829787
-0.044339586 -0.077491805 0.24861702
0.049038615 -0.092943743 0.29819149
0.049576219 -0.092811115 0.29776597
0.05009415 -0.09264531 0.29723403
0.050573625 -0.092413202 0.29648936
0.051031694 -0.092147931 0.29563829
0.20250946 -0.099277049 0.31851065
0.20261653 -0.099011779 0.31765959
0.20292431 -0.098845981 0.31712765
0.20343482 -0.098779663 0.31691489
-0.073487043 -0.073657408 0.23787235
-0.072936378 -0.073591523 0.23765957
-0.072354145 -0.073492698 0.23734042
-0.071869858 -0.073492698 0.23734042
-0.071545564 -0.073657408 0.23787235
-0.071282648 -0.073887996 0.23861702
-0.07092201 -0.074019767 0.23904255
-0.070496947 -0.074085653 0.23925532
-0.070008755 -0.074085653 0.23925532
-0.06948965 -0.074052706 0.23914893
-0.068970978 -0.074019767 0.23904255
-0.068452746 -0.073986821 0.23893617
-0.067904681 -0.073920935 0.2387234
-0.067357488 -0.073855057 0.23851064
-0.066811159 -0.073789179 0.23829788
-0.066324927 -0.073789179 0.23829788
-0.065926857 -0.073887996 0.23861702
-0.065527499 -0.073986821 0.23893617
-0.065126829 -0.074085653 0.23925532
-0.064696118 -0.074151531 0.23946808
-0.064236015 -0.07418447 0.23957446
-0.063803785 -0.074250355 0.23978724
-0.063398778 -0.07434918 0.24010639
-0.063020341 -0.074480951 0.24053192
-0.062557198 -0.07451389 0.2406383
-0.062093623 -0.074546829 0.24074468
-0.061711278 -0.0746786 0.24117021
-0.061381202 -0.074876241 0.2418085
-0.061048526 -0.075073898 0.24244681
-0.060660105 -0.075205661 0.24287234
-0.060138177 -0.075172722 0.24276596
-0.059512138 -0.075008012 0.24223404
-0.058836438 -0.074777424 0.24148937
-0.05826658 -0.0746786 0.24117021
-0.057825446 -0.074744478 0.24138297
-0.057433985 -0.074876241 0.2418085
-0.057040785 -0.075008012 0.24223404
-0.056596186 -0.075073898 0.24244681
-0.056126095 -0.075106837 0.24255319
-0.055655573 -0.075139776 0.24265957
-0.055184621 -0.075172722 0.24276596
-0.054737195 -0.0752386 0.24297872
-0.054336399 -0.075370371 0.24340425
-0.053933866 -0.075502135 0.24382979
-0.053552911 -0.075666845 0.2443617
-0.05312359 -0.075765669 0.24468085
-0.052670084 -0.075831547 0.24489361
-0.052170388 -0.075831547 0.24489361
-0.051648244 -0.075798608 0.24478723
-0.051148765 -0.075798608 0.24478723
-0.050649285 -0.075798608 0.24478723
-0.050149806 -0.075798608 0.24478723
-0.049671903 -0.075831547 0.24489361
-0.049214929 -0.07589744 0.24510638
-0.048799369 -0.076029204 0.24553192
-0.048403002 -0.076193914 0.24606383
-0.047983754 -0.076325677 0.24648936
-0.047542281 -0.076424502 0.24680851
-0.047058951 -0.076457441 0.24691489
-0.046575185 -0.076490387 0.24702127
-0.046090987 -0.076523326 0.24712765
-0.045645606 -0.076622151 0.24744681
-0.045218326 -0.076753914 0.24787234
-0.044770122 -0.076852746 0.24819149
-0.04430164 -0.076918624 0.24840425
-0.043869805 -0.077050388 0.24882978
-0.043677233 -0.077610403 0.25063831
-0.04066043 -0.077709228 0.25095746
-0.039842013 -0.077116273 0.24904256
-0.039501872 -0.077445693 0.25010639
-0.039140802 -0.077742167 0.25106382
-0.038677618 -0.077840991 0.25138298
-0.038067773 -0.077643335 0.25074467
-0.037412733 -0.077346869 0.24978724
0.049003627 -0.092269413 0.29797873
0.049576219 -0.092203528 0.29776597
0.050076224 -0.092005879 0.29712766
0.050501041 -0.091676466 0.29606384
0.050921515 -0.091347039 0.29499999
0.051411971 -0.091149397 0.29436171
0.20257708 -0.098660074 0.31861702
0.20268437 -0.098396547 0.31776595
0.20299239 -0.098231837 0.31723404
0.20350313 -0.098165959 0.31702128
-0.071377993 -0.073499285 0.23893617
-0.070985138 -0.073597461 0.23925532
-0.070528291 -0.073630184 0.2393617
-0.070008755 -0.073597461 0.23925532
-0.06948965 -0.073564731 0.23914893
-0.068970978 -0.073532008 0.23904255
-0.068483219 -0.073532008 0.23904255
-0.067965202 -0.073499285 0.23893617
-0.067477658 -0.073499285 0.23893617
-0.066960298 -0.073466562 0.23882979
-0.066413745 -0.073401108 0.23861702
-0.06595625 -0.073433831 0.2387234
-0.065527499 -0.073499285 0.23893617
-0.065126829 -0.073597461 0.23925532
-0.064696118 -0.073662907 0.23946808
-0.064264543 -0.073728353 0.23968086
-0.063860402 -0.073826529 0.23999999
-0.063483045 -0.073957421 0.24042553
-0.063103959 -0.07408832 0.24085106
-0.062667824 -0.074153773 0.24106383
-0.062230814 -0.074219219 0.24127659
-0.061820164 -0.074317396 0.24159575
-0.061462216 -0.074481018 0.24212766
-0.061128888 -0.07467737 0.24276596
-0.060739815 -0.074808262 0.2431915
-0.060217235 -0.074775539 0.2430851
-0.059616685 -0.07464464 0.24265957
-0.058966033 -0.074448295 0.24202128
-0.058395088 -0.074350119 0.24170212
-0.057952873 -0.074415572 0.2419149
-0.057535056 -0.074513741 0.24223404
-0.057140991 -0.07464464 0.24265957
-0.056670688 -0.07467737 0.24276596
-0.056199949 -0.074710093 0.24287234
-0.055704374 -0.074710093 0.24287234
-0.055257164 -0.074775539 0.2430851
-0.05480909 -0.074840985 0.24329787
-0.054407645 -0.074971884 0.24372341
-0.05402799 -0.075135507 0.24425532
-0.053646166 -0.075299129 0.24478723
-0.053215981 -0.075397305 0.24510638
-0.052738726 -0.075430028 0.24521276
-0.052238379 -0.075430028 0.24521276
-0.051715586 -0.075397305 0.24510638
-0.051215455 -0.075397305 0.24510638
-0.050715324 -0.075397305 0.24510638
-0.050215192 -0.075397305 0.24510638
-0.049736638 -0.075430028 0.24521276
-0.049300369 -0.075528204 0.24553192
-0.048883945 -0.075659104 0.24595745
-0.048465785 -0.075790003 0.24638298
-0.048045885 -0.075920895 0.24680851
-0.047583263 -0.075986348 0.24702127
-0.047079224 -0.075986348 0.24702127
-0.046575185 -0.075986348 0.24702127
-0.046071149 -0.075986348 0.24702127
-0.04560636 -0.076051794 0.24723405
-0.045160104 -0.07614997 0.24755318
-0.044712551 -0.076248139 0.24787234
-0.044244725 -0.076313592 0.24808511
-0.043776024 -0.076379038 0.24829787
-0.043306459 -0.076444492 0.24851064
-0.042836025 -0.076509938 0.2487234
-0.042328514 -0.076509938 0.2487234
-0.041803114 -0.076477215 0.24861702
-0.041260477 -0.076411761 0.24840425
-0.040753618 -0.076411761 0.24840425
-0.040281229 -0.076477215 0.24861702
-0.039893068 -0.07670629 0.24936171
-0.039518669 -0.076968081 0.25021276
-0.039140802 -0.07722988 0.25106382
-0.038644884 -0.077262603 0.25117022
-0.038051624 -0.077098981 0.25063831
-0.03742867 -0.076869912 0.24989362
-0.036871616 -0.076771736 0.24957447
-0.03643987 -0.076935358 0.25010639
-0.036112927 -0.077328049 0.25138298
-0.035750642 -0.077655293 0.2524468
-0.035309777 -0.077818915 0.25297871
-0.034822848 -0.077884369 0.2531915
-0.034306217 -0.077884369 0.2531915
-0.033832178 -0.077982537 0.25351062
-0.033384804 -0.078146167 0.25404257
0.048916154 -0.091497771 0.29744682
0.049487654 -0.091432318 0.29723403
0.049986579 -0.09123598 0.29659575
0.050428454 -0.090941451 0.29563829
0.050848063 -0.090614207 0.29457447
0.051337648 -0.090417862 0.29393616
0.20264474 -0.098042674 0.31872341
0.20282008 -0.097813599 0.31797871
0.20319661 -0.097682707 0.31755319
0.20370799 -0.097617261 0.31734043
-0.071079828 -0.073206782 0.23957446
-0.070559636 -0.073174275 0.23946808
-0.070071012 -0.073174275 0.23946808
-0.069520563 -0.073109262 0.23925532
-0.069032371 -0.073109262 0.23925532
-0.068544179 -0.073109262 0.23925532
-0.068086244 -0.073141769 0.2393617
-0.067597836 -0.073141769 0.2393617
-0.067079596 -0.073109262 0.23925532
-0.066502579 -0.073011741 0.23893617
-0.065985642 -0.072979234 0.23882979
-0.065498322 -0.072979234 0.23882979
-0.065039955 -0.073011741 0.23893617
-0.064609893 -0.073076755 0.23914893
-0.064236015 -0.073206782 0.23957446
-0.063888706 -0.073369324 0.24010639
-0.063567318 -0.073564366 0.24074468
-0.063187577 -0.0736944 0.24117021
-0.0628061 -0.073824428 0.24159575
-0.06239545 -0.073921949 0.2419149
-0.062010717 -0.074051984 0.24234043
-0.061624248 -0.074182011 0.24276596
-0.061236039 -0.074312039 0.2431915
-0.060819525 -0.074409559 0.24351063
-0.06032265 -0.074409559 0.24351063
-0.059747368 -0.074312039 0.2431915
-0.059147466 -0.074182011 0.24276596
-0.058575004 -0.074084491 0.24244681
-0.058080301 -0.074084491 0.24244681
-0.057661399 -0.074182011 0.24276596
-0.057216145 -0.074247025 0.24297872
-0.056720354 -0.074247025 0.24297872
-0.056224562 -0.074247025 0.24297872
-0.055728775 -0.074247025 0.24297872
-0.055257164 -0.074279532 0.2430851
-0.054857019 -0.074409559 0.24351063
-0.054478891 -0.074572101 0.24404256
-0.054098584 -0.074734636 0.24457447
-0.053716108 -0.074897178 0.24510638
-0.05326217 -0.074962184 0.24531914
-0.052784488 -0.074994698 0.24542554
-0.05226104 -0.074962184 0.24531914
-0.051760476 -0.074962184 0.24531914
-0.051259909 -0.074962184 0.24531914
-0.050759345 -0.074962184 0.24531914
-0.050280575 -0.074994698 0.24542554
-0.049822949 -0.075059712 0.2456383
-0.049385812 -0.075157233 0.24595745
-0.048947375 -0.075254761 0.2462766
-0.048528563 -0.075384788 0.24670213
-0.048087303 -0.075482309 0.24702127
-0.047603756 -0.075514816 0.24712765
-0.047079224 -0.075482309 0.24702127
-0.046555128 -0.075449802 0.24691489
-0.046051309 -0.075449802 0.24691489
-0.045586731 -0.075514816 0.24712765
-0.045121294 -0.07557983 0.24734043
-0.04465498 -0.075644843 0.24755318
-0.044187803 -0.075709857 0.24776596
-0.043701001 -0.075742364 0.24787234
-0.043213762 -0.075774871 0.24797872
-0.042744417 -0.075839892 0.24819149
-0.042256095 -0.075872399 0.24829787
-0.041767336 -0.075904906 0.24840425
-0.041260477 -0.075904906 0.24840425
-0.040771071 -0.075937413 0.24851064
-0.040315703 -0.076034933 0.24882978
-0.039927106 -0.076262489 0.24957447
-0.039535474 -0.076490037 0.25031915
-0.039107632 -0.076652579 0.25085106
-0.03861215 -0.076685086 0.25095746
-0.038035471 -0.076555051 0.25053191
-0.037460536 -0.076425031 0.25010639
-0.036934484 -0.076392516 0.25
-0.036517367 -0.076587565 0.25063831
-0.036143489 -0.076880127 0.25159574
-0.035765711 -0.077172697 0.25255319
-0.035309777 -0.077302724 0.25297871
-0.034808215 -0.077335231 0.25308511
-0.034277387 -0.077302724 0.25297871
-0.03378959 -0.077367745 0.2531915
-0.033342861 -0.07753028 0.25372341
-0.032880198 -0.077660307 0.25414893
-0.032388706 -0.077725321 0.25436169
-0.031829707 -0.0776278 0.25404257
-0.031272005 -0.07753028 0.25372341
-0.030715605 -0.077432759 0.25340426
-0.030173188 -0.077367745 0.2531915
-0.029619176 -0.077270217 0.25287235
-0.029078713 -0.077205203 0.25265959
0.048793685 -0.090663284 0.29670212
0.049381386 -0.090630785 0.29659575
0.049914859 -0.09050075 0.2961702
0.050374016 -0.090240687 0.29531914
0.050792973 -0.089915618 0.29425532
0.051281907 -0.08972057 0.29361701
0.20271236 -0.097424835 0.31882977
0.2029558 -0.097229794 0.3181915
0.2032647 -0.097067259 0.31765959
0.20377627 -0.097002238 0.3174468
-0.070653677 -0.072782524 0.23978724
-0.070133269 -0.072750233 0.23968086
-0.069613293 -0.072717942 0.23957446
-0.069155149 -0.072750233 0.23968086
-0.068666086 -0.072750233 0.23968086
-0.068177029 -0.072750233 0.23968086
-0.067657918 -0.072717942 0.23957446
-0.067109428 -0.072653361 0.2393617
-0.066502579 -0.072524197 0.23893617
-0.065926857 -0.072427325 0.23861702
-0.065381624 -0.072362751 0.23840426
-0.064895168 -0.072362751 0.23840426
-0.064466186 -0.072427325 0.23861702
-0.064121917 -0.072588779 0.23914893
-0.063832089 -0.072814815 0.23989362
-0.063567318 -0.073073134 0.24074468
-0.063243322 -0.073266879 0.24138297
-0.062889069 -0.073428333 0.2419149
-0.062532641 -0.073589779 0.24244681
-0.062146824 -0.073718943 0.24287234
-0.061732262 -0.073815815 0.2431915
-0.061316401 -0.073912688 0.24351063
-0.060872667 -0.073977269 0.24372341
-0.060401708 -0.07400956 0.24382979
-0.059851911 -0.073944978 0.24361703
-0.059251145 -0.073815815 0.2431915
-0.058677811 -0.073718943 0.24287234
-0.058207724 -0.073751234 0.24297872
-0.057737201 -0.073783524 0.2430851
-0.057266247 -0.073815815 0.2431915
-0.056745186 -0.073783524 0.2430851
-0.056199949 -0.073718943 0.24287234
-0.055704374 -0.073718943 0.24287234
-0.055257164 -0.073783524 0.2430851
-0.054857019 -0.073912688 0.24351063
-0.054478891 -0.074074142 0.24404256
-0.054098584 -0.074235588 0.24457447
-0.053692795 -0.074364752 0.245
-0.053239074 -0.074429333 0.24521276
-0.052738726 -0.074429333 0.24521276
-0.052238379 -0.074429333 0.24521276
-0.051738031 -0.074429333 0.24521276
-0.051259909 -0.074461624 0.24531914
-0.050781358 -0.074493915 0.24542554
-0.050345957 -0.07459078 0.24574468
-0.049909256 -0.074687652 0.24606383
-0.049471255 -0.074784525 0.24638298
-0.049031951 -0.074881397 0.24670213
-0.048591342 -0.07497827 0.24702127
-0.048108011 -0.07501056 0.24712765
-0.047583263 -0.07497827 0.24702127
-0.047038674 -0.074913688 0.24680851
-0.046515014 -0.074881397 0.24670213
-0.046011627 -0.074881397 0.24670213
-0.04556711 -0.07497827 0.24702127
-0.045101885 -0.075042851 0.24723405
-0.044635791 -0.075107433 0.24744681
-0.044149857 -0.075139716 0.24755318
-0.043644734 -0.075139716 0.24755318
-0.043158151 -0.075172015 0.24765958
-0.042707771 -0.07526888 0.24797872
-0.042256095 -0.075365752 0.24829787
-0.041785225 -0.075430334 0.24851064
-0.041313488 -0.075494915 0.2487234
-0.04082343 -0.075527206 0.24882978
-0.04036741 -0.075624079 0.24914894
-0.039944127 -0.075785525 0.24968085
-0.039518669 -0.075946979 0.25021276
-0.039057877 -0.076043852 0.25053191
-0.038546674 -0.076043852 0.25053191
-0.038003173 -0.07597927 0.25031915
-0.037476469 -0.075946979 0.25021276
-0.036997348 -0.076011553 0.25042552
-0.036579363 -0.076205298 0.25106382
-0.036174059 -0.076431341 0.25180852
-0.035765711 -0.07665737 0.25255319
-0.035294928 -0.076754242 0.25287235
-0.034778953 -0.076754242 0.25287235
-0.034234148 -0.076689661 0.25265959
-0.033718605 -0.076689661 0.25265959
-0.033258978 -0.076818824 0.25308511
-0.032797616 -0.07694798 0.25351062
-0.032307431 -0.077012569 0.25372341
-0.031776387 -0.07698027 0.25361702
-0.031232668 -0.076915696 0.25340426
-0.030689817 -0.076851115 0.2531915
-0.030173188 -0.076851115 0.2531915
-0.029619176 -0.076754242 0.25287235
-0.029103199 -0.076754242 0.25287235
-0.028611273 -0.076818824 0.25308511
-0.028153909 -0.07698027 0.25361702
-0.027694374 -0.077141725 0.25414893
-0.027187169 -0.077174015 0.25425532
-0.026657209 -0.077141725 0.25414893
-0.026138626 -0.077141725 0.25414893
0.048671219 -0.089831844 0.29595745
0.049275111 -0.089831844 0.29595745
0.049825214 -0.089734972 0.29563829
0.050319575 -0.089541227 0.29499999
0.050756246 -0.089250617 0.29404256
0.051207587 -0.088992298 0.29319149
0.20271236 -0.096774273 0.31882977
0.2029558 -0.096580535 0.3181915
0.2032647 -0.096419089 0.31765959
0.20370799 -0.096322216 0.31734043
-0.070195526 -0.072325319 0.23989362
-0.069736943 -0.072357394 0.23999999
-0.069339313 -0.072453611 0.24031915
-0.068818472 -0.072421536 0.24021277
-0.068237543 -0.072325319 0.23989362
-0.067597836 -0.072164953 0.2393617
-0.066960298 -0.072004586 0.23882979
-0.066354536 -0.071876295 0.23840426
-0.065809287 -0.071812145 0.23819149
-0.065264918 -0.071748003 0.23797873
-0.064750373 -0.071715929 0.23787235
-0.064265005 -0.071715929 0.23787235
-0.063950777 -0.071908362 0.23851064
-0.063718863 -0.072197028 0.23946808
-0.063483045 -0.072485685 0.24042553
-0.063215449 -0.072742268 0.24127659
-0.062916718 -0.072966784 0.24202128
-0.062614955 -0.0731913 0.24276596
-0.06222849 -0.073319592 0.2431915
-0.061813276 -0.073415808 0.24351063
-0.061343189 -0.073447883 0.24361703
-0.060899235 -0.073512033 0.24382979
-0.060454417 -0.073576182 0.24404256
-0.059904184 -0.073512033 0.24382979
-0.059302978 -0.073383741 0.24340425
-0.058729213 -0.073287517 0.2430851
-0.058233209 -0.073287517 0.2430851
-0.057787739 -0.073351666 0.24329787
-0.057291295 -0.073351666 0.24329787
-0.056745186 -0.073287517 0.2430851
-0.056150712 -0.073159225 0.24265957
-0.055631176 -0.073127151 0.24255319
-0.055208802 -0.073223375 0.24287234
-0.054833055 -0.073383741 0.24340425
-0.054478891 -0.073576182 0.24404256
-0.054075051 -0.073704466 0.24446808
-0.053646166 -0.07380069 0.24478723
-0.053146686 -0.07380069 0.24478723
-0.052647207 -0.07380069 0.24478723
-0.052170388 -0.073832765 0.24489361
-0.051715586 -0.073896915 0.24510638
-0.051259909 -0.073961057 0.24531914
-0.05082538 -0.074057274 0.2456383
-0.050389551 -0.074153498 0.24595745
-0.049973991 -0.074281789 0.24638298
-0.049535338 -0.074378014 0.24670213
-0.049074236 -0.074442156 0.24691489
-0.048612267 -0.074506305 0.24712765
-0.048108011 -0.074506305 0.24712765
-0.047562771 -0.074442156 0.24691489
-0.046998125 -0.074345939 0.24659574
-0.046474896 -0.074313864 0.24648936
-0.045991782 -0.074345939 0.24659574
-0.045547485 -0.074442156 0.24691489
-0.045101885 -0.07453838 0.24723405
-0.044635791 -0.074602522 0.24744681
-0.044149857 -0.074634597 0.24755318
-0.043644734 -0.074634597 0.24755318
-0.043158151 -0.074666671 0.24765958
-0.042726096 -0.074794963 0.24808511
-0.042292304 -0.074923262 0.24851064
-0.041838888 -0.075019479 0.24882978
-0.041366503 -0.075083621 0.24904256
-0.04085834 -0.075083621 0.24904256
-0.040384647 -0.07514777 0.24925531
-0.039927106 -0.075243987 0.24957447
-0.039468266 -0.075340211 0.24989362
-0.038991537 -0.075404361 0.25010639
-0.038481206 -0.075404361 0.25010639
-0.037970871 -0.075404361 0.25010639
-0.037476469 -0.075436428 0.25021276
-0.037028786 -0.075564727 0.25063831
-0.036594868 -0.075725093 0.25117022
-0.036174059 -0.075917535 0.25180852
-0.035735581 -0.076077901 0.25234044
-0.035250384 -0.076142043 0.25255319
-0.034735058 -0.076142043 0.25255319
-0.034190904 -0.076077901 0.25234044
-0.033661813 -0.076045826 0.25223404
-0.033175096 -0.076109968 0.2524468
-0.032687515 -0.076174118 0.25265959
-0.032212608 -0.076270334 0.25297871
-0.031696413 -0.076270334 0.25297871
-0.031180218 -0.076270334 0.25297871
-0.030664023 -0.076270334 0.25297871
-0.030160509 -0.076302409 0.25308511
-0.029631635 -0.076270334 0.25297871
-0.029127685 -0.076302409 0.25308511
-0.028647354 -0.076398633 0.25340426
-0.028177528 -0.076526918 0.25382978
-0.027705967 -0.076655217 0.25425532
-0.027187169 -0.076655217 0.25425532
-0.026657209 -0.076623142 0.25414893
-0.026138626 -0.076623142 0.25414893
-0.02563077 -0.076655217 0.25425532
-0.025132984 -0.076719359 0.25446808
0.048548758 -0.089003444 0.29521278
0.04915113 -0.089003444 0.29521278
0.049717639 -0.088939287 0.29499999
0.050210703 -0.088746853 0.29436171
0.050664429 -0.08849027 0.29351065
0.051133264 -0.088265754 0.29276595
0.051674254 -0.088169537 0.29244682
0.20264474 -0.096091643 0.31872341
0.20288794 -0.095899202 0.3180851
0.20319661 -0.095738836 0.31755319
0.2036397 -0.095642619 0.31723404
-0.069922417 -0.072058819 0.2406383
-0.069492787 -0.072122529 0.24085106
-0.069001339 -0.072122529 0.24085106
-0.068298072 -0.071899541 0.24010639
-0.067537747 -0.071612827 0.23914893
-0.066811159 -0.07135798 0.23829788
-0.066176876 -0.071198694 0.23776595
-0.065662332 -0.071166843 0.23765957
-0.065148219 -0.071134984 0.23755319
-0.064634539 -0.071103133 0.23744681
-0.064121298 -0.071071275 0.23734042
-0.063751109 -0.071198694 0.23776595
-0.063520715 -0.0714854 0.2387234
-0.063314505 -0.071803965 0.23978724
-0.063076086 -0.07209067 0.24074468
-0.062861405 -0.072409235 0.2418085
-0.062614955 -0.072695941 0.24276596
-0.055160437 -0.072664082 0.24265957
-0.05480909 -0.072855227 0.24329787
-0.054455139 -0.073046356 0.24393617
-0.054051522 -0.073173784 0.2443617
-0.05359954 -0.073237501 0.24457447
-0.053100493 -0.073237501 0.24457447
-0.052601445 -0.073237501 0.24457447
-0.052125063 -0.073269352 0.24468085
-0.051715586 -0.07339678 0.24510638
-0.05130437 -0.073524207 0.24553192
-0.050869405 -0.073619775 0.24585107
-0.050433137 -0.073715337 0.24617021
-0.050017145 -0.073842764 0.24659574
-0.049578059 -0.073938332 0.24691489
-0.049137667 -0.074033909 0.24723405
-0.048675045 -0.074097618 0.24744681
-0.048170142 -0.074097618 0.24744681
-0.047603756 -0.074002042 0.24712765
-0.047018401 -0.073874623 0.24670213
-0.046474896 -0.073810913 0.24648936
-0.045971941 -0.073810913 0.24648936
-0.045547485 -0.073938332 0.24691489
-0.045121294 -0.07406576 0.24734043
-0.044674173 -0.074161328 0.24765958
-0.044187803 -0.074193187 0.24776596
-0.043682247 -0.074193187 0.24776596
-0.043213762 -0.074256897 0.24797872
-0.042762738 -0.074352466 0.24829787
-0.042346615 -0.074511744 0.24882978
-0.041892551 -0.074607313 0.24914894
-0.041419514 -0.07467103 0.24936171
-0.040928151 -0.074702889 0.24946809
-0.04041912 -0.074702889 0.24946809
-0.039910089 -0.074702889 0.24946809
-0.039417859 -0.07473474 0.24957447
-0.038925197 -0.074766599 0.24968085
-0.038432099 -0.074798457 0.24978724
-0.037954718 -0.074862167 0.25
-0.037476469 -0.074925877 0.25021276
-0.037028786 -0.075053304 0.25063831
-0.036594868 -0.07521259 0.25117022
-0.036158774 -0.075371869 0.25170213
-0.035705443 -0.075499289 0.25212765
-0.035205837 -0.075531147 0.25223404
-0.034705795 -0.075563006 0.25234044
-0.034176487 -0.075531147 0.25223404
-0.033647612 -0.075499289 0.25212765
-0.033133153 -0.075499289 0.25212765
-0.032618698 -0.075499289 0.25212765
-0.032131333 -0.075563006 0.25234044
-0.031629767 -0.075594857 0.2524468
-0.031140886 -0.075658575 0.25265959
-0.030651132 -0.075722285 0.25287235
-0.030160509 -0.075785995 0.25308511
-0.029656559 -0.075817861 0.2531915
-0.029152172 -0.075849704 0.25329787
-0.028659377 -0.075913422 0.25351062
-0.028189339 -0.076040849 0.25393617
-0.027705967 -0.076136418 0.25425532
-0.027198542 -0.076168269 0.25436169
-0.026668368 -0.076136418 0.25425532
-0.026138626 -0.076104559 0.25414893
-0.025620045 -0.076104559 0.25414893
-0.025122475 -0.076168269 0.25436169
-0.024644621 -0.076295696 0.25478724
-0.0241751 -0.076454975 0.25531915
-0.023673842 -0.076518692 0.25553191
-0.023133161 -0.076454975 0.25531915
-0.022583924 -0.076359406 0.255
-0.022072811 -0.076391265 0.25510639
-0.021579238 -0.076486841 0.25542554
-0.021119444 -0.076709829 0.25617021
0.048391297 -0.088114358 0.29425532
0.048974004 -0.0880825 0.29414892
0.049520422 -0.087986939 0.2938298
0.050011091 -0.087795801 0.29319149
0.05049916 -0.087604664 0.29255319
0.051021785 -0.087477244 0.29212767
0.051561467 -0.087381668 0.29180852
0.20257708 -0.095409438 0.31861702
0.20288794 -0.09525016 0.3180851
0.20319661 -0.095090881 0.31755319
0.2036397 -0.094995312 0.31723404
-0.069676958 -0.071820915 0.24148937
-0.069153726 -0.071789272 0.24138297
-0.068449371 -0.071567804 0.2406383
-0.067567796 -0.071156494 0.23925532
-0.066721685 -0.070776828 0.23797873
-0.066058435 -0.070586987 0.23734042
-0.065544762 -0.070555352 0.23723404
-0.06506069 -0.070555352 0.23723404
-0.064518712 -0.070492074 0.23702128
-0.063977592 -0.070428789 0.23680851
-0.063522913 -0.070460431 0.23691489
-0.063237645 -0.070681907 0.23765957
-0.063061699 -0.071029939 0.23882979
-0.062853105 -0.071346328 0.23989362
-0.050891418 -0.073149763 0.24595745
-0.050454933 -0.073244683 0.2462766
-0.050038725 -0.073371239 0.24670213
-0.049599417 -0.073466152 0.24702127
-0.049222242 -0.073655993 0.24765958
-0.048779678 -0.073750906 0.24797872
-0.048273686 -0.073750906 0.24797872
-0.047685724 -0.07362435 0.24755318
-0.047079224 -0.073466152 0.24702127
-0.046494953 -0.073339596 0.24659574
-0.045971941 -0.073307954 0.24648936
-0.045527861 -0.073402874 0.24680851
-0.045121294 -0.073561072 0.24734043
-0.044712551 -0.073719263 0.24787234
-0.044244725 -0.073782548 0.24808511
-0.043757271 -0.073814183 0.24819149
-0.043287918 -0.073877461 0.24840425
-0.042836025 -0.073972382 0.2487234
-0.04240093 -0.074098937 0.24914894
-0.041981988 -0.074257128 0.24968085
-0.041507866 -0.074320413 0.24989362
-0.041015416 -0.074352048 0.25
-0.040470831 -0.074288771 0.24978724
-0.039944127 -0.074257128 0.24968085
-0.039417859 -0.074225493 0.24957447
-0.038908612 -0.074225493 0.24957447
-0.038432099 -0.074288771 0.24978724
-0.037954718 -0.074352048 0.25
-0.037492402 -0.074446969 0.25031915
-0.037044499 -0.074573524 0.25074467
-0.036594868 -0.07470008 0.25117022
-0.036143489 -0.074826635 0.25159574
-0.035675313 -0.074921556 0.25191489
-0.035176139 -0.074953198 0.25202128
-0.034676529 -0.074984826 0.25212765
-0.034162071 -0.074984826 0.25212765
-0.033647612 -0.074984826 0.25212765
-0.033119176 -0.074953198 0.25202128
-0.032591172 -0.074921556 0.25191489
-0.032090694 -0.074953198 0.25202128
-0.031603113 -0.075016469 0.25223404
-0.031114658 -0.075079747 0.2524468
-0.030651132 -0.07520631 0.25287235
-0.030173188 -0.07530123 0.2531915
-0.029669017 -0.075332865 0.25329787
-0.029176658 -0.075396135 0.25351062
-0.028683433 -0.075459421 0.25372341
-0.028201148 -0.075554341 0.25404257
-0.027717559 -0.075649254 0.25436169
-0.027209917 -0.075680897 0.25446808
-0.026690684 -0.075680897 0.25446808
-0.026149569 -0.075617619 0.25425532
-0.025620045 -0.075585976 0.25414893
-0.02511197 -0.075617619 0.25425532
-0.024644621 -0.07577581 0.25478724
-0.0241751 -0.075934008 0.25531915
-0.023673842 -0.075997286 0.25553191
-0.0231428 -0.07596565 0.25542554
-0.022593347 -0.07587073 0.25510639
-0.022072811 -0.07587073 0.25510639
-0.021588223 -0.075997286 0.25553191
-0.021128215 -0.076218762 0.25627661
-0.020648059 -0.07637696 0.25680852
-0.020149058 -0.07647188 0.25712767
-0.019624397 -0.07647188 0.25712767
-0.019115541 -0.076535158 0.25734043
-0.018621186 -0.076661706 0.25776595
-0.018140033 -0.076851547 0.25840425
-0.017649023 -0.077009737 0.25893617
-0.01714881 -0.077136301 0.25936171
0.048233848 -0.0872292 0.29329789
0.048796885 -0.087165914 0.2930851
0.049305268 -0.087007716 0.29255319
0.049793333 -0.086817876 0.29191488
0.050333891 -0.08672297 0.29159576
0.050891716 -0.086659685 0.29138297
0.051467482 -0.08662805 0.2912766
0.20264474 -0.094790958 0.31872341
0.2029558 -0.09463276 0.3181915
0.2032647 -0.094474569 0.31765959
0.20377627 -0.094411284 0.3174468
-0.070311882 -0.072490782 0.24542554
-0.068782233 -0.071422428 0.2418085
-0.067687966 -0.070793994 0.23968086
-0.066721685 -0.070291236 0.23797873
-0.065999217 -0.070039861 0.23712766
-0.065456584 -0.069977015 0.23691489
-0.064973168 -0.069977015 0.23691489
-0.064402878 -0.069882751 0.23659575
-0.063805148 -0.069757059 0.23617022
-0.063266203 -0.069694214 0.23595744
-0.062897965 -0.069819905 0.23638298
-0.062640354 -0.07007128 0.23723404
-0.048335817 -0.073339179 0.24829787
-0.047747202 -0.073213488 0.24787234
-0.047119778 -0.073024958 0.24723405
-0.046494953 -0.072836421 0.24659574
-0.045971941 -0.072805002 0.24648936
-0.045508239 -0.072867848 0.24670213
-0.045121294 -0.073056377 0.24734043
-0.04473174 -0.073244914 0.24797872
-0.044320617 -0.073402025 0.24851064
-0.043832291 -0.073433444 0.24861702
-0.043343537 -0.07346487 0.2487234
-0.042890988 -0.073559135 0.24904256
-0.04247335 -0.073716246 0.24957447
-0.042089313 -0.073936202 0.25031915
-0.041649226 -0.074061885 0.25074467
-0.041172501 -0.074124739 0.25095746
-0.040608719 -0.074030466 0.25063831
-0.04002922 -0.073904775 0.25021276
-0.039485067 -0.073841937 0.25
-0.038958367 -0.07381051 0.24989362
-0.038464833 -0.073841937 0.25
-0.03798702 -0.073904775 0.25021276
-0.037524272 -0.07399904 0.25053191
-0.03706022 -0.074093312 0.25085106
-0.036610361 -0.074218996 0.25127658
-0.036143489 -0.074313261 0.25159574
-0.035675313 -0.074407533 0.25191489
-0.03516129 -0.074407533 0.25191489
-0.034647267 -0.074407533 0.25191489
-0.034147657 -0.074438952 0.25202128
-0.033633418 -0.074438952 0.25202128
-0.033119176 -0.074438952 0.25202128
-0.032591172 -0.074407533 0.25191489
-0.032077149 -0.074407533 0.25191489
-0.03158978 -0.074470371 0.25212765
-0.031114658 -0.074564636 0.2524468
-0.030651132 -0.074690334 0.25287235
-0.030185863 -0.074816018 0.25329787
-0.0297064 -0.074910283 0.25361702
-0.029213389 -0.074973129 0.25382978
-0.028719515 -0.075035974 0.25404257
-0.028224766 -0.07509882 0.25425532
-0.027729152 -0.075161658 0.25446808
-0.027232667 -0.075224504 0.25468084
-0.026701843 -0.075193085 0.25457448
-0.026160508 -0.075130239 0.25436169
-0.025620045 -0.075067393 0.25414893
-0.025101462 -0.075067393 0.25414893
-0.02463433 -0.075224504 0.25468084
-0.0241751 -0.075413041 0.25531915
-0.023673842 -0.075475879 0.25553191
-0.0231428 -0.07544446 0.25542554
-0.022602767 -0.075381614 0.25521275
-0.022082014 -0.075381614 0.25521275
-0.021597212 -0.075507306 0.2556383
-0.021128215 -0.075695843 0.25627661
-0.02065661 -0.075884365 0.25691488
-0.020157393 -0.075978637 0.25723404
-0.019632516 -0.075978637 0.25723404
-0.019115541 -0.076010063 0.25734043
-0.018621186 -0.076135747 0.25776595
-0.018132564 -0.07629285 0.25829786
-0.017641772 -0.07644996 0.25882977
-0.017141774 -0.076575659 0.25925532
-0.016633224 -0.076669924 0.25957447
-0.016129969 -0.076795608 0.25999999
-0.015599447 -0.076795608 0.25999999
-0.015025767 -0.076575659 0.25925532
-0.01443728 -0.076261438 0.2581915
-0.013870327 -0.076041475 0.2574468
-0.013322958 -0.075915791 0.25702128
0.048146367 -0.086473614 0.29276595
0.0486729 -0.08634793 0.29234043
0.049143907 -0.086127974 0.29159576
0.049648162 -0.085970856 0.29106382
0.050186984 -0.085876599 0.29074469
0.050798815 -0.085908018 0.29085106
0.051411089 -0.085939445 0.29095745
0.052004777 -0.085939445 0.29095745
0.20278001 -0.09420345 0.31893617
0.20315936 -0.094077766 0.31851065
0.20353697 -0.093952075 0.3180851
0.20404944 -0.093889236 0.31787235
-0.069205888 -0.0713659 0.24329787
-0.067808144 -0.07042975 0.24010639
-0.06675151 -0.069836855 0.23808511
-0.065969609 -0.069524802 0.23702128
-0.065368406 -0.069399983 0.23659575
-0.064827293 -0.069337569 0.23638298
-0.064229123 -0.06921275 0.23595744
-0.063575216 -0.069025524 0.23531915
-0.063009486 -0.068931907 0.235
-0.062586591 -0.068994321 0.23521277
-0.062134735 -0.069025524 0.23531915
-0.045488615 -0.072333254 0.24659574
-0.045101885 -0.072520487 0.24723405
-0.04473174 -0.072738916 0.24797872
-0.044339586 -0.072926149 0.24861702
-0.043869805 -0.072988562 0.24882978
-0.043380614 -0.073019765 0.24893618
-0.04292763 -0.073113382 0.24925531
-0.042563874 -0.073363028 0.25010639
-0.042232413 -0.073675074 0.25117022
-0.041843601 -0.073893502 0.25191489
-0.041364484 -0.073955916 0.25212765
-0.040781081 -0.073831096 0.25170213
-0.040165376 -0.073643863 0.25106382
-0.039585881 -0.073519051 0.25063831
-0.039041288 -0.07345663 0.25042552
-0.038546674 -0.073487841 0.25053191
-0.038067773 -0.073550247 0.25074467
-0.037572071 -0.073581457 0.25085106
-0.037075937 -0.073612668 0.25095746
-0.036610361 -0.073706277 0.25127658
-0.036158774 -0.073831096 0.25170213
-0.035690382 -0.073924713 0.25202128
-0.035176139 -0.073924713 0.25202128
-0.034647267 -0.073893502 0.25191489
-0.034118831 -0.073862307 0.25180852
-0.033619218 -0.073893502 0.25191489
-0.033105195 -0.073893502 0.25191489
-0.032591172 -0.073893502 0.25191489
-0.032077149 -0.073893502 0.25191489
-0.031603113 -0.073987119 0.25223404
-0.031140886 -0.074111946 0.25265959
-0.030689817 -0.074267969 0.2531915
-0.030211218 -0.074361578 0.25351062
-0.02973132 -0.074455194 0.25382978
-0.029250121 -0.074548811 0.25414893
-0.02875559 -0.074611217 0.25436169
-0.028248385 -0.074642427 0.25446808
-0.027752336 -0.074704833 0.25468084
-0.027232667 -0.074704833 0.25468084
-0.026701843 -0.074673638 0.25457448
-0.026160508 -0.074611217 0.25436169
-0.025620045 -0.074548811 0.25414893
-0.02511197 -0.074580021 0.25425532
-0.024644621 -0.074736044 0.25478724
-0.0241751 -0.074892066 0.25531915
-0.023683699 -0.074985683 0.2556383
-0.023152437 -0.074954472 0.25553191
-0.022621613 -0.074923277 0.25542554
-0.022100424 -0.074923277 0.25542554
-0.021606201 -0.075016893 0.2557447
-0.021136984 -0.075204119 0.25638297
-0.020665165 -0.075391352 0.25702128
-0.020157393 -0.075453758 0.25723404
-0.019640636 -0.075484969 0.25734043
-0.019115541 -0.075484969 0.25734043
-0.018605817 -0.075547375 0.25755319
-0.018110162 -0.075672194 0.25797874
-0.01762002 -0.075828224 0.25851065
-0.017120672 -0.075953037 0.25893617
-0.016626406 -0.076109059 0.25946808
-0.01611677 -0.076202676 0.25978723
-0.015586683 -0.076202676 0.25978723
-0.015019601 -0.076015443 0.25914893
-0.014443227 -0.075765803 0.25829786
-0.013881791 -0.075578578 0.25765958
-0.013339502 -0.075484969 0.25734043
-0.012809109 -0.075453758 0.25723404
-0.012289313 -0.075484969 0.25734043
-0.011783671 -0.075609781 0.25776595
-0.011285585 -0.075797014 0.25840425
-0.010793753 -0.076046653 0.25925532
0.048655186 -0.085720211 0.29223403
0.049143907 -0.085532986 0.29159576
0.04963002 -0.085345753 0.29095745
0.050168619 -0.085252136 0.2906383
0.05078024 -0.085283346 0.29074469
0.051392287 -0.085314542 0.29085106
0.051985759 -0.085314542 0.29085106
0.20336291 -0.093521468 0.31882977
0.20374119 -0.093396649 0.31840426
0.20425431 -0.093334243 0.3181915
-0.2008366 -0.092963867 0.31914893
-0.067838185 -0.069970809 0.24021277
-0.066691861 -0.069289073 0.23787235
-0.065821558 -0.068886228 0.23648936
-0.065192051 -0.068731286 0.23595744
-0.064652242 -0.068669312 0.23574468
-0.064055376 -0.068545364 0.23531915
-0.063402772 -0.068359435 0.23468085
-0.062838338 -0.068266474 0.23436171
-0.062388439 -0.068297461 0.23446809
-0.041984964 -0.073627383 0.25276595
-0.041539021 -0.073751345 0.2531915
-0.040953442 -0.073627383 0.25276595
-0.040284514 -0.0733485 0.25180852
-0.039653089 -0.073131576 0.25106382
-0.039107632 -0.073069602 0.25085106
-0.038628515 -0.073131576 0.25106382
-0.038132381 -0.073162571 0.25117022
-0.037619874 -0.073162571 0.25117022
-0.03709165 -0.073131576 0.25106382
-0.036625866 -0.073224545 0.25138298
-0.036174059 -0.0733485 0.25180852
-0.035720512 -0.073472448 0.25223404
-0.035205837 -0.073472448 0.25223404
-0.0346619 -0.073410474 0.25202128
-0.034118831 -0.0733485 0.25180852
-0.033605024 -0.0733485 0.25180852
-0.033091217 -0.0733485 0.25180852
-0.032591172 -0.073379479 0.25191489
-0.032104239 -0.073441453 0.25212765
-0.0316431 -0.073565409 0.25255319
-0.031193331 -0.073720351 0.25308511
-0.030741394 -0.073875293 0.25361702
-0.03026193 -0.073968254 0.25393617
-0.029756244 -0.073999248 0.25404257
-0.029250121 -0.074030228 0.25414893
-0.028743567 -0.074061222 0.25425532
-0.028248385 -0.074123196 0.25446808
-0.027752336 -0.07418517 0.25468084
-0.027244044 -0.074216157 0.25478724
-0.026713001 -0.07418517 0.25468084
-0.026171451 -0.074123196 0.25446808
-0.025641492 -0.074092202 0.25436169
-0.025132984 -0.074123196 0.25446808
-0.024654912 -0.074247152 0.25489363
-0.024185173 -0.074402086 0.25542554
-0.023683699 -0.07446406 0.2556383
-0.023171717 -0.074495055 0.2557447
-0.022640456 -0.07446406 0.2556383
-0.02212804 -0.074495055 0.2557447
-0.021633161 -0.074588008 0.25606382
-0.021154525 -0.07474295 0.25659573
-0.020665165 -0.074866906 0.25702128
-0.02016573 -0.074959874 0.25734043
-0.019648753 -0.074990854 0.2574468
-0.019123442 -0.074990854 0.2574468
-0.018605817 -0.075021848 0.25755319
-0.018095223 -0.075083822 0.25776595
-0.017605515 -0.075238757 0.25829786
-0.017106606 -0.075362712 0.25872341
-0.016605955 -0.07548666 0.25914893
-0.016090371 -0.075548641 0.25936171
-0.015561152 -0.075548641 0.25936171
-0.015013436 -0.07545568 0.25904256
-0.014455126 -0.075300738 0.25851065
-0.013910448 -0.075207777 0.2581915
-0.013367074 -0.075114809 0.25787234
-0.012840894 -0.075114809 0.25787234
-0.012314714 -0.075114809 0.25787234
-0.011798261 -0.075176783 0.2580851
-0.011294877 -0.075331725 0.25861701
-0.010798182 -0.075548641 0.25936171
-0.010298448 -0.075765558 0.26010638
-0.0098036639 -0.076044455 0.26106384
-0.009301194 -0.076292343 0.26191488
-0.0087881312 -0.07647828 0.26255319
-0.0082624312 -0.076571241 0.26287234
-0.0077291764 -0.076602235 0.26297873
-0.0071925772 -0.076602235 0.26297873
-0.0066559776 -0.076602235 0.26297873
-0.0061218534 -0.076633215 0.2630851
0.048690613 -0.0851859 0.29244682
0.049197692 -0.085030951 0.29191488
0.049684461 -0.084845029 0.2912766
0.050223708 -0.084752068 0.29095745
0.0508174 -0.084752068 0.29095745
0.051429883 -0.084783047 0.29106382
0.052023787 -0.084783047 0.29106382
0.20343079 -0.092901893 0.31893617
0.20387734 -0.092808932 0.31861702
0.2043909 -0.092746958 0.31840426
-0.067718007 -0.069357581 0.23978724
-0.066542722 -0.068649843 0.23734042
-0.065614298 -0.068188287 0.23574468
-0.064986311 -0.068034433 0.23521277
-0.06447719 -0.068003654 0.23510638
-0.063881628 -0.067880571 0.23468085
-0.063316546 -0.067788266 0.23436171
-0.062781289 -0.067726724 0.23414893
-0.062331825 -0.067757487 0.23425531
-0.04102239 -0.073234715 0.2531915
-0.040335566 -0.072926998 0.25212765
-0.039686691 -0.072680831 0.25127658
-0.039140802 -0.072619289 0.25106382
