# .PCD v0.7 - Point Cloud Data file format
VERSION 0.7
FIELDS x y z
SIZE 4 4 4
TYPE F F F
COUNT 1 1 1
WIDTH 1382
HEIGHT 1
VIEWPOINT 0 0 0 1 0 0 0
POINTS 1382
DATA ascii
0.046924192 0.070879266 0.17882979
0.047232822 0.070794933 0.17861702
0.04754059 0.070710599 0.17840426
0.047847483 0.070626266 0.17819148
0.048153516 0.070541941 0.17797872
0.048458673 0.070457608 0.17776595
0.048792183 0.070415445 0.17765957
0.049095824 0.070331119 0.17744681
0.049428243 0.070288949 0.17734042
0.049700499 0.07016246 0.17702128
0.050001536 0.070078127 0.17680851
0.050332006 0.070035964 0.17670213
0.050692558 0.070035964 0.17670213
0.051083848 0.070078127 0.17680851
0.05141367 0.070035964 0.17670213
0.051743053 0.069993801 0.17659575
0.052040614 0.069909468 0.17638297
0.052400518 0.069909468 0.17638297
0.052728601 0.069867305 0.17627659
0.053056251 0.069825143 0.17617022
0.053383466 0.069782972 0.17606384
0.053710241 0.06974081 0.17595744
0.054069277 0.06974081 0.17595744
0.054428309 0.06974081 0.17595744
0.054787345 0.06974081 0.17595744
0.05511304 0.069698639 0.17585106
0.055438302 0.069656476 0.17574468
0.055796903 0.069656476 0.17574468
0.056223486 0.06974081 0.17595744
0.056616735 0.069782972 0.17606384
0.057044838 0.069867305 0.17627659
0.057404526 0.069867305 0.17627659
0.057694491 0.069782972 0.17606384
0.057913434 0.069614314 0.1756383
0.058201227 0.06952998 0.17542553
0.018854862 0.080737732 0.20265958
0.019238038 0.080610581 0.20234042
0.01961991 0.080483437 0.20202127
0.02002158 0.08044105 0.20191489
0.020433581 0.08044105 0.20191489
0.020845581 0.08044105 0.20191489
0.021246383 0.080398671 0.20180851
0.021623915 0.080271527 0.20148936
0.021988509 0.080101997 0.20106383
0.022339517 0.079890087 0.20053191
0.022688355 0.079678178 0.2
0.023035023 0.079466268 0.19946809
0.023404524 0.079339124 0.19914894
0.02377272 0.079211973 0.19882978
0.024139617 0.079084828 0.19851063
0.024518363 0.079000063 0.19829787
0.024896242 0.078915298 0.1980851
0.025273254 0.07883054 0.19787234
0.025663201 0.078788154 0.19776596
0.026038691 0.078703389 0.19755319
0.026413314 0.078618631 0.19734043
0.026787069 0.078533858 0.19712766
0.027130608 0.078364335 0.19670212
0.027487302 0.078237191 0.19638298
0.027857799 0.078152426 0.19617021
0.028242756 0.078110047 0.19606383
0.028627276 0.07806766 0.19595745
0.028995601 0.077982895 0.19574468
0.029363062 0.077898137 0.19553192
0.029729653 0.077813365 0.19531915
0.030078964 0.07768622 0.19499999
0.030410351 0.077516697 0.19457448
0.030739998 0.077347167 0.19414894
0.03106791 0.077177644 0.19372341
0.031411361 0.077050492 0.19340426
0.031771004 0.076965727 0.19319148
0.032147493 0.076923348 0.1930851
0.03252355 0.076880969 0.19297872
0.032899171 0.076838583 0.19287235
0.033274353 0.076796196 0.19276595
0.033611946 0.07666906 0.19244681
0.033948235 0.076541908 0.19212766
0.034302235 0.076457143 0.19191489
0.03465537 0.076372378 0.19170213
0.035027083 0.076329999 0.19159575
0.03539836 0.07628762 0.19148937
0.035749324 0.076202855 0.19127659
0.036099419 0.076118089 0.19106384
0.036428325 0.075990945 0.19074468
0.036755931 0.075863793 0.19042553
0.037102986 0.075779036 0.19021277
0.037407238 0.075609505 0.18978724
0.037688561 0.075397588 0.18925531
0.037946317 0.0751433 0.18861702
0.03820147 0.074889012 0.18797873
0.038475849 0.074677095 0.1874468
0.038748063 0.074465193 0.18691489
0.039018102 0.074253283 0.18638298
0.039285973 0.074041374 0.18585107
0.039528966 0.073787078 0.18521276
0.039792277 0.073575169 0.18468085
0.040076558 0.073405638 0.18425532
0.040312391 0.07315135 0.18361703
0.040545616 0.072897054 0.18297872
0.040752448 0.072600387 0.18223405
0.04095624 0.072303705 0.18148936
0.041205443 0.072091803 0.18095745
0.041476913 0.071922272 0.18053192
0.041771308 0.071795121 0.18021277
0.042089276 0.071710363 0.18000001
0.042406373 0.071625598 0.17978723
0.042747915 0.071583211 0.17968085
0.043063492 0.071498446 0.17946808
0.043378204 0.071413688 0.17925532
0.043692045 0.071328923 0.17904255
0.044005021 0.071244158 0.17882979
0.044343524 0.071201779 0.17872341
0.04468159 0.071159393 0.17861702
0.045072883 0.071201779 0.17872341
0.045437563 0.071201779 0.17872341
0.045774974 0.071159393 0.17861702
0.046111956 0.071117014 0.17851064
0.046448506 0.071074627 0.17840426
0.046756703 0.070989862 0.17819148
0.047064036 0.070905104 0.17797872
0.047342148 0.070777953 0.17765957
0.047647528 0.070693195 0.17744681
0.047952034 0.07060843 0.17723404
0.048284676 0.070566043 0.17712766
0.048616882 0.070523664 0.17702128
0.048948657 0.070481285 0.1769149
0.049250342 0.07039652 0.17670213
0.049551159 0.070311755 0.17648937
0.049881194 0.070269369 0.17638297
0.050210796 0.07022699 0.17627659
0.050570481 0.07022699 0.17627659
0.050930168 0.07022699 0.17627659
0.051258903 0.070184611 0.17617022
0.051587202 0.070142224 0.17606384
0.051946454 0.070142224 0.17606384
0.0522741 0.070099838 0.17595744
0.052633133 0.070099838 0.17595744
0.052960131 0.070057459 0.17585106
0.05325444 0.069972701 0.1756383
0.053580347 0.069930315 0.17553191
0.053938515 0.069930315 0.17553191
0.054296684 0.069930315 0.17553191
0.054654848 0.069930315 0.17553191
0.054979675 0.069887936 0.17542553
0.055304069 0.06984555 0.17531915
0.055695575 0.069887936 0.17542553
0.056087516 0.069930315 0.17553191
0.056514107 0.07001508 0.17574468
0.056941558 0.070099838 0.17595744
0.057335239 0.070142224 0.17606384
0.05765963 0.070099838 0.17595744
0.057948511 0.07001508 0.17574468
0.058307111 0.07001508 0.17574468
0.017980505 0.080938257 0.20212767
0.018402619 0.080980852 0.20223404
0.018805373 0.080938257 0.20212767
0.019177351 0.080767855 0.20170213
0.019537257 0.080554858 0.20117021
0.019905543 0.080384463 0.20074467
0.020282859 0.080256671 0.20042554
0.020658871 0.080128871 0.20010638
0.021044783 0.080043674 0.19989362
0.021418408 0.079915874 0.19957447
0.021802364 0.079830676 0.1993617
0.022173602 0.079702884 0.19904256
0.022531468 0.079532482 0.19861703
0.022899883 0.079404689 0.19829787
0.023266995 0.07927689 0.19797872
0.023645526 0.079191692 0.19776596
0.024023188 0.079106487 0.19755319
0.024399981 0.079021297 0.19734043
0.024775906 0.078936093 0.19712766
0.025150964 0.078850895 0.1969149
0.025538957 0.0788083 0.19680852
0.025912493 0.078723103 0.19659574
0.026285164 0.078637905 0.19638298
0.026628053 0.078467511 0.19595745
0.026983878 0.078339711 0.1956383
0.027338399 0.078211911 0.19531915
0.027706727 0.078126714 0.19510639
0.028074186 0.078041516 0.19489361
0.028456319 0.077998914 0.19478723
0.02882226 0.077913724 0.19457448
0.029187331 0.077828519 0.1943617
0.02953534 0.077700719 0.19404255
0.029882051 0.077572927 0.19372341
0.030227456 0.077445127 0.19340426
0.030571559 0.077317327 0.1930851
0.030931422 0.077232137 0.19287235
0.031290416 0.077146932 0.19265957
0.031648539 0.077061735 0.19244681
0.032023508 0.077019133 0.19234042
0.032398045 0.076976538 0.19223404
0.032790292 0.076976538 0.19223404
0.033164173 0.076933943 0.19212766
0.033519045 0.076848738 0.19191489
0.03385425 0.076720946 0.19159575
0.034169134 0.076550551 0.19117022
0.034501515 0.076422751 0.19085106
0.034852047 0.076337554 0.1906383
0.035182036 0.076209754 0.19031915
0.035490844 0.076039359 0.18989362
0.035797916 0.075868964 0.18946809
0.036082938 0.075655967 0.18893617
0.036365785 0.075442977 0.18840426
0.036667213 0.075272575 0.18797873
0.036945935 0.075059578 0.1874468
0.037201304 0.074803986 0.18680851
0.037454065 0.074548386 0.18617021
0.037704222 0.074292794 0.18553191
0.037973613 0.074079804 0.185
0.038240831 0.073866807 0.18446809
0.038505878 0.07365381 0.18393616
0.038791243 0.073483407 0.18351063
0.039097577 0.073355615 0.18319149
0.039379686 0.07318522 0.18276596
0.039683197 0.073057421 0.18244681
0.03996205 0.072887026 0.18202128
0.040239166 0.072716631 0.18159574
0.040490758 0.072503634 0.18106383
0.040740177 0.072290644 0.18053192
0.041011646 0.072120242 0.18010639
0.041305825 0.071992442 0.17978723
0.041623358 0.071907252 0.17957447
0.041940022 0.071822047 0.1793617
0.042255819 0.071736857 0.17914894
0.042570747 0.071651652 0.17893617
0.042910334 0.071609057 0.17882979
0.043249488 0.071566455 0.17872341
0.043562241 0.071481258 0.17851064
0.043847952 0.071353458 0.17819148
0.044185154 0.071310863 0.1780851
0.044521917 0.07126826 0.17797872
0.044885077 0.07126826 0.17797872
0.045248237 0.07126826 0.17797872
0.045584135 0.071225666 0.17787234
0.045919593 0.071183063 0.17776595
0.046254624 0.071140461 0.17765957
0.046589218 0.071097866 0.17755319
0.046895243 0.071012661 0.17734042
0.047172058 0.070884869 0.17702128
0.047476131 0.070799671 0.17680851
0.04777934 0.070714474 0.17659575
0.048110679 0.070671879 0.17648937
0.048441578 0.070629276 0.17638297
0.048772048 0.070586674 0.17627659
0.049102087 0.070544079 0.17617022
0.049431689 0.070501477 0.17606384
0.049760852 0.070458874 0.17595744
0.050089587 0.070416279 0.17585106
0.050417885 0.070373684 0.17574468
0.050776489 0.070373684 0.17574468
0.051104136 0.070331082 0.1756383
0.05146252 0.070331082 0.1756383
0.051789515 0.070288479 0.17553191
0.052147679 0.070288479 0.17553191
0.052505847 0.070288479 0.17553191
0.05279994 0.070203282 0.17531915
0.053125419 0.070160687 0.17521277
0.053482931 0.070160687 0.17521277
0.053840447 0.070160687 0.17521277
0.054197963 0.070160687 0.17521277
0.054522354 0.070118085 0.17510638
0.054846313 0.07007549 0.175
0.055203393 0.07007549 0.175
0.055594247 0.070118085 0.17510638
0.056019533 0.070203282 0.17531915
0.056445684 0.070288479 0.17553191
0.056838281 0.070331082 0.1756383
0.057231307 0.070373684 0.17574468
0.057624768 0.070416279 0.17585106
0.057983588 0.070416279 0.17585106
0.058342405 0.070416279 0.17585106
0.015424286 0.080922522 0.20106383
0.015826171 0.080879711 0.20095745
0.016227623 0.080836892 0.20085107
0.016646266 0.080879711 0.20095745
0.017074371 0.08096534 0.20117021
0.017503345 0.081050977 0.20138298
0.01791426 0.081050977 0.20138298
0.018315496 0.081008159 0.2012766
0.0186965 0.080879711 0.20095745
0.019055974 0.080665633 0.20042554
0.019402945 0.08040873 0.19978723
0.019757861 0.080194652 0.19925532
0.020121371 0.080023386 0.19882978
0.020494128 0.079894938 0.19851063
0.020876782 0.079809308 0.19829787
0.021269986 0.07976649 0.19819149
0.021662753 0.079723671 0.1980851
0.022043237 0.079638042 0.19787234
0.022422854 0.079552412 0.19765958
0.022789316 0.079423964 0.19734043
0.023166977 0.079338327 0.19712766
0.023543771 0.079252698 0.1969149
0.023919694 0.079167061 0.19670212
0.024294753 0.079081431 0.19648936
0.024668939 0.078995794 0.19627659
0.025028674 0.078867353 0.19595745
0.025387103 0.078738905 0.1956383
0.025744231 0.07861045 0.19531915
0.026114296 0.078524821 0.19510639
0.026454579 0.078353561 0.19468085
0.0268078 0.078225106 0.1943617
0.027159717 0.078096658 0.19404255
0.02752544 0.078011028 0.19382979
0.027905621 0.077968217 0.19372341
0.028285364 0.077925391 0.19361702
0.028648917 0.077839762 0.19340426
0.0290116 0.077754125 0.19319148
0.029357223 0.077625684 0.19287235
0.029717952 0.077540047 0.19265957
0.030077815 0.077454418 0.19244681
0.03045365 0.077411599 0.19234042
0.030829055 0.077368781 0.19223404
0.031186746 0.077283151 0.19202128
0.031543568 0.077197522 0.19180851
0.031899523 0.077111892 0.19159575
0.03225461 0.077026255 0.19138297
0.032645121 0.077026255 0.19138297
0.033017267 0.076983437 0.19127659
0.033370402 0.076897807 0.19106384
0.033685073 0.076726548 0.1906383
0.033978987 0.076512463 0.19010638
0.034270737 0.076298378 0.18957447
0.034560312 0.076084301 0.18904255
0.034867384 0.075913034 0.18861702
0.035152838 0.075698957 0.18808511
0.03539592 0.075399242 0.18734042
0.035656281 0.075142346 0.18670213
0.035934567 0.074928261 0.18617021
0.036210686 0.074714184 0.18563829
0.036463667 0.074457288 0.185
0.036692858 0.074157573 0.18425532
0.036940411 0.073900677 0.18361703
0.037206978 0.0736866 0.18308511
0.03749321 0.073515333 0.18265958
0.037777707 0.073344067 0.18223405
0.038082737 0.073215619 0.1819149
0.038408954 0.073129982 0.18170212
0.038711596 0.073001541 0.18138298
0.039035857 0.072915904 0.18117021
0.039359253 0.072830275 0.18095745
0.039658424 0.072701827 0.1806383
0.03997986 0.07261619 0.18042552
0.040252857 0.072444931 0.18000001
0.04052411 0.072273664 0.17957447
0.040817853 0.072145216 0.17925532
0.041159179 0.072102398 0.17914894
0.041475408 0.072016768 0.17893617
0.041790769 0.071931139 0.17872341
0.042105261 0.071845502 0.17851064
0.04241889 0.071759872 0.17829788
0.042757172 0.071717054 0.17819148
0.043095022 0.071674235 0.1780851
0.043406479 0.071588606 0.17787234
0.043690886 0.071460158 0.17755319
0.044000387 0.071374521 0.17734042
0.044335634 0.07133171 0.17723404
0.044670444 0.071288891 0.17712766
0.045031868 0.071288891 0.17712766
0.045338765 0.071203262 0.1769149
0.045672271 0.071160443 0.17680851
0.046033043 0.071160443 0.17680851
0.046365902 0.071117625 0.17670213
0.046698324 0.071074814 0.17659575
0.047030315 0.071031995 0.17648937
0.047333304 0.070946366 0.17627659
0.047635425 0.070860736 0.17606384
0.047965676 0.07081791 0.17595744
0.04826628 0.070732281 0.17574468
0.048595447 0.07068947 0.1756383
0.048924178 0.070646644 0.17553191
0.049282346 0.070646644 0.17553191
0.04964051 0.070646644 0.17553191
0.049968377 0.070603833 0.17542553
0.050295807 0.070561014 0.17531915
0.050622806 0.070518203 0.17521277
0.050949365 0.070475385 0.17510638
0.051306665 0.070475385 0.17510638
0.051632576 0.070432566 0.175
0.05198966 0.070432566 0.175
0.052314918 0.070389755 0.17489362
0.052639745 0.070346937 0.17478724
0.052964132 0.070304118 0.17468084
0.053320564 0.070304118 0.17468084
0.05370969 0.070346937 0.17478724
0.054066338 0.070346937 0.17478724
0.054422982 0.070346937 0.17478724
0.05477963 0.070346937 0.17478724
0.055136278 0.070346937 0.17478724
0.0555267 0.070389755 0.17489362
0.055951547 0.070475385 0.17510638
0.056377269 0.070561014 0.17531915
0.056769427 0.070603833 0.17542553
0.057162017 0.070646644 0.17553191
0.05755505 0.07068947 0.1756383
0.057983588 0.070775099 0.17585106
0.058377698 0.07081791 0.17595744
0.058772251 0.070860736 0.17606384
0.013775937 0.081289753 0.20095745
0.014201003 0.081375822 0.20117021
0.014603757 0.081332788 0.20106383
0.015006078 0.081289753 0.20095745
0.015407965 0.081246726 0.20085107
0.015809415 0.081203684 0.20074467
0.016201839 0.081117623 0.20053191
0.016602205 0.081074595 0.20042554
0.017011167 0.081074595 0.20042554
0.017420128 0.081074595 0.20042554
0.017810162 0.080988519 0.20021276
0.01819933 0.080902457 0.2
0.018557936 0.080687292 0.19946809
0.018914368 0.080472127 0.19893616
0.019268634 0.080256961 0.19840425
0.019620726 0.080041796 0.19787234
0.01999218 0.079912692 0.19755319
0.020373316 0.079826631 0.19734043
0.020775983 0.079826631 0.19734043
0.021167234 0.079783596 0.19723405
0.021558046 0.079740562 0.19712766
0.021948429 0.079697527 0.19702128
0.022326307 0.079611465 0.19680852
0.022691032 0.079482362 0.19648936
0.023066957 0.079396293 0.19627659
0.023429295 0.079267196 0.19595745
0.023816202 0.079224162 0.19585106
0.024189522 0.079138093 0.1956383
0.024548603 0.079008996 0.19531915
0.024892796 0.078836858 0.19489361
0.025235249 0.078664728 0.19446808
0.025575968 0.078492597 0.19404255
0.02592919 0.078363501 0.19372341
0.026281107 0.078234397 0.19340426
0.026631722 0.078105301 0.1930851
0.026995925 0.078019232 0.19287235
0.027374366 0.077976197 0.19276595
0.027752375 0.077933162 0.19265957
0.02812995 0.077890135 0.19255319
0.028491329 0.077804066 0.19234042
0.028867818 0.077761032 0.19223404
0.029227681 0.07767497 0.19202128
0.029586675 0.077588901 0.19180851
0.029961428 0.077545866 0.19170213
0.030352589 0.077545866 0.19170213
0.03072669 0.077502832 0.19159575
0.031083077 0.077416763 0.19138297
0.031421106 0.077287666 0.19106384
0.031740118 0.077115536 0.1906383
0.032075319 0.076986432 0.19031915
0.032427363 0.076900363 0.19010638
0.032796908 0.076857336 0.19
0.033128854 0.076728232 0.18968084
0.033421904 0.076513067 0.18914893
0.033674758 0.07621184 0.18840426
0.033924568 0.075910605 0.18765958
0.034210239 0.07569544 0.18712766
0.034474071 0.07543724 0.18648936
0.034715418 0.075136006 0.18574469
0.034973823 0.074877806 0.18510638
0.035229623 0.074619606 0.18446809
0.03548282 0.074361406 0.18382978
0.035754163 0.074146241 0.18329787
0.036023337 0.073931076 0.18276596
0.036247965 0.073629841 0.18202128
0.036512364 0.073414676 0.18148936
0.036774591 0.073199511 0.18095745
0.037100155 0.073113441 0.18074468
0.037424851 0.07302738 0.18053192
0.03774868 0.072941311 0.18031915
0.038094126 0.072898276 0.18021277
0.03843914 0.072855249 0.18010639
0.038760796 0.07276918 0.17989361
0.039081588 0.072683111 0.17968085
0.039401505 0.072597042 0.17946808
0.039720561 0.07251098 0.17925532
0.040014952 0.072381876 0.17893617
0.040308043 0.07225278 0.17861702
0.04062406 0.072166711 0.17840426
0.040939204 0.072080642 0.17819148
0.041278139 0.072037615 0.1780851
0.041591767 0.071951546 0.17787234
0.041929614 0.071908511 0.17776595
0.042241722 0.07182245 0.17755319
0.042578489 0.071779415 0.17744681
0.042914815 0.07173638 0.17734042
0.043198794 0.071607284 0.17702128
0.043507639 0.071521215 0.17680851
0.04378923 0.071392119 0.17648937
0.044122737 0.071349077 0.17638297
0.044455811 0.07130605 0.17627659
0.044788454 0.071263015 0.17617022
0.045093395 0.071176946 0.17595744
0.045452431 0.071176946 0.17595744
0.045811463 0.071176946 0.17595744
0.046170499 0.071176946 0.17595744
0.046529535 0.071176946 0.17595744
0.046860222 0.071133919 0.17585106
0.047190476 0.071090885 0.17574468
0.047491509 0.071004815 0.17553191
0.047791678 0.070918754 0.17531915
0.048090976 0.070832677 0.17510638
0.048418842 0.07078965 0.175
0.048775923 0.07078965 0.175
0.049162872 0.070832677 0.17510638
0.049520172 0.070832677 0.17510638
0.049847167 0.07078965 0.175
0.050173733 0.070746616 0.17489362
0.05049986 0.070703588 0.17478724
0.050825551 0.070660546 0.17468084
0.051150814 0.070617519 0.17457446
0.05147564 0.070574485 0.17446809
0.051800031 0.07053145 0.17436171
0.05212399 0.070488423 0.17425533
0.052447509 0.070445381 0.17414893
0.052802857 0.070445381 0.17414893
0.053158201 0.070445381 0.17414893
0.053578928 0.07053145 0.17436171
0.053967614 0.070574485 0.17446809
0.05432361 0.070574485 0.17446809
0.054679606 0.070574485 0.17446809
0.05506916 0.070617519 0.17457446
0.055492926 0.070703588 0.17478724
0.055917557 0.07078965 0.175
0.05634306 0.070875719 0.17521277
0.056735002 0.070918754 0.17531915
0.057127375 0.070961781 0.17542553
0.057520185 0.071004815 0.17553191
0.057948511 0.071090885 0.17574468
0.058377698 0.071176946 0.17595744
0.058772251 0.071219988 0.17606384
0.012914692 0.081440307 0.20031916
0.013351738 0.081613302 0.20074467
0.013768645 0.081656553 0.20085107
0.014178474 0.081656553 0.20085107
0.014580577 0.081613302 0.20074467
0.014974303 0.081526801 0.20053191
0.015358998 0.081397049 0.20021276
0.01575077 0.081310555 0.2
0.016124481 0.081137553 0.19957447
0.016514082 0.081051044 0.1993617
0.016902816 0.08096455 0.19914894
0.017290678 0.080878049 0.19893616
0.017677674 0.080791548 0.19872341
0.018054122 0.080661796 0.19840425
0.018419368 0.080488794 0.19797872
0.018782878 0.080315791 0.19755319
0.01913432 0.080099545 0.19702128
0.019504691 0.079969786 0.19670212
0.019895289 0.079926543 0.19659574
0.020285454 0.079883292 0.19648936
0.020686382 0.079883292 0.19648936
0.021087313 0.079883292 0.19648936
0.02147661 0.079840042 0.19638298
0.021853618 0.07975354 0.19617021
0.022229761 0.079667039 0.19595745
0.022592749 0.079537287 0.1956383
0.022954436 0.079407535 0.19531915
0.023302099 0.079234533 0.19489361
0.023673901 0.079148039 0.19468085
0.024044832 0.079061531 0.19446808
0.024401527 0.078931786 0.19414894
0.024743332 0.078758784 0.19372341
0.025083398 0.078585781 0.19329788
0.025421727 0.078412786 0.19287235
0.02575832 0.078239784 0.19244681
0.026122089 0.078153275 0.19223404
0.02648499 0.078066781 0.19202128
0.026876803 0.078066781 0.19202128
0.027253509 0.078023523 0.19191489
0.02762978 0.07798028 0.19180851
0.028005619 0.077937029 0.19170213
0.028381022 0.077893779 0.19159575
0.028740015 0.077807277 0.19138297
0.029114334 0.077764027 0.19127659
0.029488217 0.077720776 0.19117022
0.029861668 0.077677526 0.19106384
0.030234681 0.077634275 0.19095744
0.030607263 0.077591024 0.19085106
0.030927576 0.077418022 0.19042553
0.03122866 0.077201776 0.18989362
0.031509858 0.076942265 0.18925531
0.031824309 0.07676927 0.18882979
0.032137025 0.076596275 0.18840426
0.032466371 0.076466516 0.18808511
0.032757249 0.07625027 0.1875532
0.033027157 0.075990766 0.18691489
0.033275448 0.075688012 0.18617021
0.033520702 0.075385265 0.18542553
0.033782367 0.075125754 0.18478723
0.034041423 0.074866258 0.18414894
0.034297876 0.074606754 0.18351063
0.034551725 0.07434725 0.18287234
0.034823284 0.074131005 0.18234043
0.035113208 0.073958002 0.1819149
0.035401396 0.073785 0.18148936
0.035666879 0.073568754 0.18095745
0.035909001 0.073309243 0.18031915
0.036191329 0.07313624 0.17989361
0.036471918 0.072963245 0.17946808
0.036794443 0.072876744 0.17925532
0.037138157 0.072833493 0.17914894
0.037503704 0.072833493 0.17914894
0.037869252 0.072833493 0.17914894
0.038212091 0.072790243 0.17904255
0.038554501 0.072746992 0.17893617
0.038850196 0.07261724 0.17861702
0.039167948 0.072530739 0.17840426
0.039461255 0.072400987 0.1780851
0.039753262 0.072271235 0.17776595
0.040043969 0.072141491 0.17744681
0.040381815 0.072098233 0.17734042
0.04071923 0.07205499 0.17723404
0.041031558 0.071968488 0.17702128
0.041367888 0.071925238 0.1769149
0.041703783 0.071881987 0.17680851
0.042039245 0.071838737 0.17670213
0.042374272 0.071795486 0.17659575
0.04270887 0.071752235 0.17648937
0.042991105 0.071622483 0.17617022
0.043298218 0.071535982 0.17595744
0.04357807 0.071406238 0.1756383
0.04390984 0.07136298 0.17553191
0.044214349 0.071276486 0.17531915
0.04454504 0.071233235 0.17521277
0.044875287 0.071189977 0.17510638
0.045232587 0.071189977 0.17510638
0.045589887 0.071189977 0.17510638
0.0459751 0.071233235 0.17521277
0.046360746 0.071276486 0.17531915
0.046690132 0.071233235 0.17521277
0.047019079 0.071189977 0.17510638
0.047318816 0.071103483 0.17489362
0.047617678 0.071016975 0.17468084
0.047944892 0.070973732 0.17457446
0.048301104 0.070973732 0.17457446
0.04868697 0.071016975 0.17468084
0.049043398 0.071016975 0.17468084
0.04942992 0.071060233 0.17478724
0.049756259 0.071016975 0.17468084
0.050051656 0.070930481 0.17446809
0.050376914 0.07088723 0.17436171
0.050701741 0.07084398 0.17425533
0.050994962 0.070757478 0.17404255
0.051318701 0.070714228 0.17393617
0.051642008 0.070670985 0.17382979
0.051964879 0.070627727 0.1737234
0.052287318 0.070584476 0.17361702
0.052641578 0.070584476 0.17361702
0.053028308 0.070627727 0.1737234
0.053448167 0.070714228 0.17393617
0.053835984 0.070757478 0.17404255
0.054224234 0.070800729 0.17414893
0.054579582 0.070800729 0.17414893
0.054968487 0.07084398 0.17425533
0.055425372 0.070973732 0.17457446
0.055849575 0.071060233 0.17478724
0.056274638 0.071146734 0.175
0.056666143 0.071189977 0.17510638
0.057058092 0.071233235 0.17521277
0.057450466 0.071276486 0.17531915
0.057878353 0.07136298 0.17553191
0.058307111 0.071449488 0.17574468
0.058701225 0.071492732 0.17585106
0.05909577 0.071535982 0.17595744
0.012013685 0.081283972 0.19893616
0.012459457 0.081544779 0.19957447
0.012894116 0.081718646 0.2
0.013323436 0.081849046 0.20031916
0.013732181 0.081849046 0.20031916
0.014133415 0.081805579 0.20021276
0.014518763 0.081675179 0.19989362
0.014902807 0.081544779 0.19957447
0.015285549 0.081414372 0.19925532
0.01565861 0.081240505 0.19882978
0.016029935 0.081066631 0.19840425
0.016408335 0.080936231 0.1980851
0.016785435 0.080805831 0.19776596
0.017170476 0.08071889 0.19755319
0.01755465 0.080631964 0.19734043
0.017928274 0.080501556 0.19702128
0.018300597 0.080371156 0.19670212
0.018661503 0.080197282 0.19627659
0.019041335 0.080110349 0.19606383
0.0194203 0.080023415 0.19585106
0.019819926 0.080023415 0.19585106
0.020208571 0.079979949 0.19574468
0.020596784 0.079936482 0.1956383
0.02098456 0.079893015 0.19553192
0.021371901 0.079849541 0.19542553
0.021746958 0.079762615 0.19521277
0.022121146 0.079675674 0.19499999
0.022469897 0.079501815 0.19457448
0.022816909 0.079327941 0.19414894
0.023162186 0.079154074 0.19372341
0.023531599 0.079067133 0.19351064
0.02388699 0.078936733 0.19319148
0.024254449 0.0788498 0.19297872
0.024593865 0.078675926 0.19255319
0.024945349 0.078545526 0.19223404
0.02529553 0.078415118 0.19191489
0.025644409 0.078284726 0.19159575
0.026006442 0.078197785 0.19138297
0.026382279 0.078154318 0.19127659
0.026772572 0.078154318 0.19127659
0.027162867 0.078154318 0.19127659
0.027537836 0.078110851 0.19117022
0.027896827 0.078023918 0.19095744
0.028270712 0.077980451 0.19085106
0.028628187 0.077893518 0.1906383
0.029000985 0.077850044 0.19053191
0.02935694 0.077763118 0.19031915
0.029712025 0.077676177 0.19010638
0.0300494 0.077545777 0.18978724
0.030385472 0.077415377 0.18946809
0.030685686 0.077198043 0.18893617
0.030966232 0.076937236 0.18829787
0.031226465 0.076632962 0.1875532
0.031483654 0.076328695 0.18680851
0.0317741 0.076111354 0.1862766
0.03208074 0.075937487 0.18585107
0.032348476 0.07567668 0.18521276
0.032594819 0.075372413 0.18446809
0.032819103 0.075024672 0.18361703
0.033078376 0.074763864 0.18297872
0.033354495 0.074546531 0.18244681
0.033648107 0.074372657 0.18202128
0.033920102 0.074155323 0.18148936
0.034189928 0.07393799 0.18095745
0.034477897 0.073764116 0.18053192
0.034805197 0.073677182 0.18031915
0.03511088 0.073546782 0.18000001
0.035415258 0.073416382 0.17968085
0.035697151 0.073242508 0.17925532
0.035977304 0.073068641 0.17882979
0.036255725 0.072894767 0.17840426
0.036576077 0.072807834 0.17819148
0.036917619 0.072764367 0.1780851
0.037280995 0.072764367 0.1780851
0.037666857 0.072807834 0.17819148
0.038030453 0.072807834 0.17819148
0.038371127 0.072764367 0.1780851
0.038665086 0.072633959 0.17776595
0.038934387 0.072460093 0.17734042
0.039225526 0.072329693 0.17702128
0.039515361 0.072199292 0.17670213
0.039827902 0.072112359 0.17648937
0.040139575 0.072025418 0.17627659
0.040450379 0.071938492 0.17606384
0.04078497 0.071895018 0.17595744
0.041094258 0.071808085 0.17574468
0.041427765 0.071764618 0.1756383
0.041786149 0.071764618 0.1756383
0.042144533 0.071764618 0.1756383
0.042477172 0.071721151 0.17553191
0.042757459 0.071590751 0.17521277
0.043062616 0.071503811 0.175
0.043366909 0.071416877 0.17478724
0.043696944 0.071373411 0.17468084
0.044026546 0.071329944 0.17457446
0.044382758 0.071329944 0.17457446
0.044711709 0.071286477 0.17446809
0.045067705 0.071286477 0.17446809
0.045423701 0.071286477 0.17446809
0.045779698 0.071286477 0.17446809
0.046135694 0.071286477 0.17446809
0.04649169 0.071286477 0.17446809
0.046819124 0.07124301 0.17436171
0.047146119 0.071199544 0.17425533
0.047472678 0.07115607 0.17414893
0.047828026 0.07115607 0.17414893
0.04818337 0.07115607 0.17414893
0.048568368 0.071199544 0.17425533
0.048953798 0.07124301 0.17436171
0.049309578 0.07124301 0.17436171
0.049635056 0.071199544 0.17425533
0.049960095 0.07115607 0.17414893
0.050253969 0.071069144 0.17393617
0.050577927 0.071025677 0.17382979
0.050870277 0.070938736 0.17361702
0.051193152 0.07089527 0.17351064
0.05151559 0.070851803 0.17340426
0.051869415 0.070851803 0.17340426
0.052223243 0.070851803 0.17340426
0.052577067 0.070851803 0.17340426
0.052963365 0.07089527 0.17351064
0.053350098 0.070938736 0.17361702
0.053737264 0.070982203 0.1737234
0.054124866 0.071025677 0.17382979
0.054512899 0.071069144 0.17393617
0.054901369 0.07111261 0.17404255
0.055357825 0.07124301 0.17436171
0.055781588 0.071329944 0.17457446
0.056206223 0.071416877 0.17478724
0.056597292 0.071460344 0.17489362
0.056988802 0.071503811 0.175
0.057345882 0.071503811 0.175
0.057773121 0.071590751 0.17521277
0.05816593 0.071634218 0.17531915
0.058594685 0.071721151 0.17553191
0.058988586 0.071764618 0.1756383
0.05934697 0.071764618 0.1756383
0.011177879 0.081515156 0.19851063
0.011576725 0.081471473 0.19840425
0.011994412 0.081558838 0.19861703
0.012432891 0.08177726 0.19914894
0.012859823 0.081908315 0.19946809
0.013273907 0.081951998 0.19957447
0.013673839 0.081908315 0.19946809
0.014058318 0.08177726 0.19914894
0.014433767 0.081602521 0.19872341
0.014807479 0.08142779 0.19829787
0.015187616 0.081296735 0.19797872
0.015558073 0.081121996 0.19755319
0.015935389 0.080990948 0.19723405
0.016302589 0.080816209 0.19680852
0.016677083 0.080685154 0.19648936
0.01705952 0.080597781 0.19627659
0.017450552 0.080554098 0.19617021
0.017831471 0.080466732 0.19595745
0.018201623 0.080335677 0.1956383
0.018570472 0.080204621 0.19531915
0.01894835 0.080117255 0.19510639
0.019346459 0.080117255 0.19510639
0.0197338 0.080073565 0.19499999
0.020120708 0.080029882 0.19489361
0.020495983 0.079942517 0.19468085
0.020870388 0.079855144 0.19446808
0.021243926 0.079767779 0.19425532
0.021604743 0.079636723 0.19393617
0.021976328 0.079549357 0.19372341
0.022334758 0.079418302 0.19340426
0.022691885 0.079287246 0.1930851
0.02303499 0.079112507 0.19265957
0.023389297 0.078981452 0.19234042
0.023755454 0.078894086 0.19212766
0.024107371 0.078763038 0.19180851
0.024471575 0.078675665 0.19159575
0.024834909 0.078588299 0.19138297
0.025197377 0.078500934 0.19117022
0.025558975 0.078413561 0.19095744
0.025934162 0.078369878 0.19085106
0.026308913 0.078326195 0.19074468
0.026698122 0.078326195 0.19074468
0.027087329 0.078326195 0.19074468
0.027445888 0.078238823 0.19053191
0.027788039 0.078107774 0.19021277
0.028144645 0.078020401 0.19
0.028484406 0.077889346 0.18968084
0.028839059 0.07780198 0.18946809
0.029176433 0.077670924 0.18914893
0.02947925 0.077452503 0.18861702
0.0297799 0.077234082 0.18808511
0.030078376 0.077015661 0.1875532
0.030357404 0.076753549 0.18691489
0.03061633 0.076447755 0.18617021
0.03085451 0.076098286 0.18531916
0.031125071 0.075836182 0.18468085
0.031393029 0.075574078 0.18404256
0.031658381 0.075311966 0.18340425
0.03192113 0.075049862 0.18276596
0.032143679 0.074700385 0.1819149
0.032400779 0.074438274 0.18127659
0.03267451 0.074219853 0.18074468
0.032984968 0.074088797 0.18042552
0.033313792 0.074001431 0.18021277
0.033621859 0.073870376 0.17989361
0.033928629 0.073739327 0.17957447
0.034234092 0.073608272 0.17925532
0.034579325 0.073564589 0.17914894
0.03492412 0.073520899 0.17904255
0.035247512 0.073433533 0.17882979
0.035527669 0.073258795 0.17840426
0.035827488 0.073127739 0.1780851
0.036104389 0.072953008 0.17765957
0.036423225 0.072865635 0.17744681
0.03674119 0.07277827 0.17723404
0.03710283 0.07277827 0.17723404
0.03746447 0.07277827 0.17723404
0.037848815 0.072821952 0.17734042
0.038164828 0.072734587 0.17712766
0.038456835 0.072603531 0.17680851
0.038724184 0.072428793 0.17638297
0.039013371 0.072297744 0.17606384
0.03932504 0.072210371 0.17585106
0.039635845 0.072123006 0.1756383
0.039921556 0.07199195 0.17531915
0.040205963 0.071860895 0.175
0.040513732 0.071773529 0.17478724
0.040845498 0.071729839 0.17468084
0.041176837 0.071686156 0.17457446
0.041533053 0.071686156 0.17457446
0.041889265 0.071686156 0.17457446
0.042219736 0.071642473 0.17446809
0.042549774 0.071598791 0.17436171
0.042853195 0.071511418 0.17414893
0.043155752 0.071424052 0.17393617
0.043510661 0.071424052 0.17393617
0.043865573 0.071424052 0.17393617
0.044220485 0.071424052 0.17393617
0.044548132 0.071380369 0.17382979
0.044875342 0.071336679 0.1737234
0.045229819 0.071336679 0.1737234
0.045584295 0.071336679 0.1737234
0.045910642 0.071292996 0.17361702
0.046264902 0.071292996 0.17361702
0.046619162 0.071292996 0.17361702
0.046973422 0.071292996 0.17361702
0.047327682 0.071292996 0.17361702
0.047681943 0.071292996 0.17361702
0.048065633 0.071336679 0.1737234
0.048479415 0.071424052 0.17393617
0.048864193 0.071467735 0.17404255
0.049219321 0.071467735 0.17404255
0.049544148 0.071424052 0.17393617
0.049838018 0.071336679 0.1737234
0.05016176 0.071292996 0.17361702
0.050454114 0.071205631 0.17340426
0.050776765 0.071161941 0.17329787
0.051098987 0.071118258 0.17319149
0.05145238 0.071118258 0.17319149
0.051805772 0.071118258 0.17319149
0.052191202 0.071161941 0.17329787
0.05254481 0.071161941 0.17329787
0.052898418 0.071161941 0.17329787
0.05328472 0.071205631 0.17340426
0.053671449 0.071249314 0.17351064
0.054058615 0.071292996 0.17361702
0.054446217 0.071336679 0.1737234
0.054867812 0.071424052 0.17393617
0.055290271 0.071511418 0.17414893
0.055713605 0.071598791 0.17436171
0.056103591 0.071642473 0.17446809
0.056494012 0.071686156 0.17457446
0.05688487 0.071729839 0.17468084
0.057276163 0.071773529 0.17478724
0.057667889 0.071817212 0.17489362
0.058024753 0.071817212 0.17489362
0.05845264 0.071904577 0.17510638
0.058845669 0.071948268 0.17521277
0.059275076 0.072035633 0.17542553
0.010053481 0.082666539 0.20031916
0.010434444 0.082447022 0.19978723
0.010807464 0.082183622 0.19914894
0.011183869 0.081964113 0.19861703
0.011570519 0.081832409 0.19829787
0.011975138 0.081832409 0.19829787
0.0123864 0.081876308 0.19840425
0.012791238 0.081876308 0.19840425
0.013188999 0.081832409 0.19829787
0.013586327 0.08178851 0.19819149
0.0139682 0.081656799 0.19787234
0.014341045 0.081481196 0.19744681
0.014712153 0.081305586 0.19702128
0.015089685 0.081173882 0.19670212
0.015474293 0.081086084 0.19648936
0.015849438 0.080954373 0.19617021
0.01622328 0.080822669 0.19585106
0.016604848 0.080734871 0.1956383
0.016985549 0.080647066 0.19542553
0.017365381 0.080559261 0.19521277
0.017744346 0.080471456 0.19499999
0.018122442 0.080383658 0.19478723
0.018489555 0.080251947 0.19446808
0.018876029 0.080208048 0.1943617
0.019262068 0.080164149 0.19425532
0.019647675 0.080120251 0.19414894
0.020021863 0.080032445 0.19393617
0.020383982 0.079900742 0.19361702
0.020744801 0.079769038 0.19329788
0.021104317 0.079637334 0.19297872
0.02147438 0.079549529 0.19276595
0.021843577 0.079461724 0.19255319
0.022211904 0.079373918 0.19234042
0.022579363 0.079286121 0.19212766
0.022933234 0.079154417 0.19180851
0.023285804 0.079022713 0.19148937
0.023650225 0.078934908 0.19127659
0.024000404 0.078803204 0.19095744
0.024362873 0.078715399 0.19074468
0.024738276 0.0786715 0.1906383
0.025113244 0.078627594 0.19053191
0.025487781 0.078583695 0.19042553
0.025861882 0.078539796 0.19031915
0.026250221 0.078539796 0.19031915
0.026623672 0.078495897 0.19021277
0.026996685 0.078451991 0.19010638
0.027338618 0.078320287 0.18978724
0.027648166 0.078100778 0.18925531
0.027971303 0.077925175 0.18882979
0.028292701 0.077749573 0.18840426
0.028612362 0.077573963 0.18797873
0.028913878 0.077354454 0.1874468
0.02917997 0.077047147 0.18670213
0.029443022 0.076739833 0.18595745
0.029720098 0.076476425 0.18531916
0.029994566 0.07621301 0.18468085
0.030248934 0.075905703 0.18393616
0.030482557 0.075554498 0.18308511
0.030748559 0.075291082 0.18244681
0.03101196 0.075027674 0.18180852
0.031291112 0.074808165 0.18127659
0.031549521 0.074544758 0.1806383
0.031786524 0.074237444 0.17989361
0.032058518 0.074017935 0.1793617
0.032366805 0.073886231 0.17904255
0.032712687 0.073842332 0.17893617
0.033058137 0.073798433 0.17882979
0.033403151 0.073754534 0.17872341
0.033727627 0.073666729 0.17851064
0.034051239 0.073578924 0.17829788
0.034394514 0.073535018 0.17819148
0.03475811 0.073535018 0.17819148
0.035100736 0.073491119 0.1780851
0.035400555 0.073359415 0.17776595
0.035699077 0.073227711 0.17744681
0.035974674 0.073052108 0.17702128
0.036248531 0.072876498 0.17659575
0.03654271 0.072744794 0.17627659
0.036902394 0.072744794 0.17627659
0.037262082 0.072744794 0.17627659
0.03762177 0.072744794 0.17627659
0.037958533 0.072700895 0.17617022
0.038225446 0.072525285 0.17574468
0.038513981 0.072393581 0.17542553
0.038824786 0.072305784 0.17521277
0.039158508 0.072261877 0.17510638
0.039443787 0.072130173 0.17478724
0.039727762 0.07199847 0.17446809
0.039985992 0.071822867 0.17404255
0.040291805 0.071735062 0.17382979
0.040596746 0.071647257 0.17361702
0.040951006 0.071647257 0.17361702
0.041305266 0.071647257 0.17361702
0.041685052 0.071691155 0.1737234
0.042013787 0.071647257 0.17361702
0.042342085 0.071603358 0.17351064
0.042643771 0.071515553 0.17329787
0.042970985 0.071471654 0.17319149
0.043324377 0.071471654 0.17319149
0.043704595 0.071515553 0.17329787
0.044058204 0.071515553 0.17329787
0.04438455 0.071471654 0.17319149
0.044710461 0.071427748 0.17308511
0.04503594 0.071383849 0.17297873
0.045360979 0.071339943 0.17287233
0.045713719 0.071339943 0.17287233
0.046066459 0.071339943 0.17287233
0.0464192 0.071339943 0.17287233
0.04677194 0.071339943 0.17287233
0.047153685 0.071383849 0.17297873
0.047535859 0.071427748 0.17308511
0.047947899 0.071515553 0.17329787
0.04833116 0.071559459 0.17340426
0.048714854 0.071603358 0.17351064
0.04909898 0.071647257 0.17361702
0.049422938 0.071603358 0.17351064
0.049746461 0.071559459 0.17340426
0.050069548 0.071515553 0.17329787
0.050392207 0.071471654 0.17319149
0.050714426 0.071427748 0.17308511
0.051036216 0.071383849 0.17297873
0.051389173 0.071383849 0.17297873
0.05177395 0.071427748 0.17308511
0.05215916 0.071471654 0.17319149
0.05254481 0.071515553 0.17329787
0.052865945 0.071471654 0.17319149
0.053252026 0.071515553 0.17329787
0.053605635 0.071515553 0.17329787
0.054025494 0.071603358 0.17351064
0.054446217 0.071691155 0.1737234
0.054867812 0.071778961 0.17393617
0.055256497 0.071822867 0.17404255
0.055645615 0.071866766 0.17414893
0.056035176 0.071910672 0.17425533
0.056425162 0.071954571 0.17436171
0.056780942 0.071954571 0.17436171
0.057171579 0.07199847 0.17446809
0.057562653 0.072042368 0.17457446
0.057918865 0.072042368 0.17457446
0.058310591 0.072086267 0.17468084
0.058738481 0.072174072 0.17489362
0.059203185 0.072305784 0.17521277
0.059596863 0.072349682 0.17531915
0.0092114666 0.082854688 0.19978723
0.0096242484 0.082898811 0.19989362
0.010032124 0.082898811 0.19989362
0.010417776 0.082722336 0.19946809
0.010795917 0.082501739 0.19893616
0.011165898 0.082237028 0.19829787
0.011545689 0.082060553 0.19787234
0.011930168 0.081928194 0.19755319
0.012319986 0.081839964 0.19734043
0.012715793 0.081795841 0.19723405
0.013104091 0.081707604 0.19702128
0.013498814 0.081663489 0.1969149
0.013885592 0.081575245 0.19670212
0.014263777 0.081442893 0.19638298
0.014640657 0.08131054 0.19606383
0.015024397 0.081222296 0.19585106
0.015407269 0.081134066 0.1956383
0.01578927 0.081045821 0.19542553
0.016170407 0.080957592 0.19521277
0.016541643 0.080825232 0.19489361
0.016920825 0.080736995 0.19468085
0.017299138 0.080648758 0.19446808
0.017666902 0.080516405 0.19414894
0.018033365 0.080384046 0.19382979
0.018398523 0.080251694 0.19351064
0.018783044 0.080207571 0.19340426
0.019167129 0.080163456 0.19329788
0.01955078 0.080119334 0.19319148
0.019912034 0.079986982 0.19287235
0.020283183 0.079898745 0.19265957
0.02063063 0.079722263 0.19223404
0.020987974 0.079589911 0.19191489
0.021344017 0.079457559 0.19159575
0.021722894 0.079413444 0.19148937
0.022101335 0.079369314 0.19138297
0.022479344 0.079325199 0.19127659
0.022844199 0.079236969 0.19106384
0.023208184 0.079148725 0.19085106
0.023558149 0.079016365 0.19053191
0.023920182 0.078928135 0.19031915
0.024281345 0.078839891 0.19010638
0.024655446 0.078795776 0.19
0.025029114 0.078751661 0.18989362
0.025402347 0.078707546 0.18978724
0.025760688 0.078619301 0.18957447
0.026132835 0.078575186 0.18946809
0.02650455 0.078531072 0.18936171
0.026845613 0.078398712 0.18904255
0.027170051 0.078222238 0.18861702
0.027446127 0.077913404 0.18787234
0.027734924 0.077648692 0.18723404
0.028037092 0.077428102 0.18670213
0.028320894 0.077163391 0.18606383
0.028585685 0.076854564 0.18531916
0.028830808 0.076501615 0.18446809
0.029089302 0.076192781 0.18372341
0.029344756 0.075883947 0.18297872
0.02961445 0.075619243 0.18234043
0.029881539 0.075354524 0.18170212
0.030128313 0.075045697 0.18095745
0.030407904 0.074825101 0.18042552
0.030685324 0.074604511 0.17989361
0.030978939 0.074428037 0.17946808
0.031252235 0.074207447 0.17893617
0.031523362 0.073986851 0.17840426
0.03181133 0.073810376 0.17797872
0.03215526 0.073766261 0.17787234
0.032518201 0.073766261 0.17787234
0.03290081 0.073810376 0.17797872
0.033244088 0.073766261 0.17787234
0.033586927 0.073722139 0.17776595
0.033909019 0.073633902 0.17755319
0.034250777 0.073589787 0.17744681
0.034592099 0.073545665 0.17734042
0.03493299 0.07350155 0.17723404
0.035252262 0.073413312 0.17702128
0.035570659 0.073325075 0.17680851
0.035844956 0.073148601 0.17638297
0.036095675 0.072928004 0.17585106
0.03636628 0.07275153 0.17542553
0.036679689 0.0726633 0.17521277
0.037014715 0.072619177 0.17510638
0.037372015 0.072619177 0.17510638
0.037683472 0.07253094 0.17489362
0.037970919 0.072398581 0.17457446
0.03828042 0.072310351 0.17436171
0.03861263 0.072266228 0.17425533
0.038968191 0.072266228 0.17425533
0.039275736 0.072177991 0.17404255
0.039533969 0.072001517 0.17361702
0.039814901 0.071869157 0.17329787
0.04009454 0.071736805 0.17297873
0.040422618 0.071692683 0.17287233
0.040775359 0.071692683 0.17287233
0.041128099 0.071692683 0.17287233
0.041480839 0.071692683 0.17287233
0.04183358 0.071692683 0.17287233
0.042160358 0.071648568 0.17276596
0.042486705 0.071604453 0.17265958
0.042812616 0.071560331 0.1725532
0.043164704 0.071560331 0.1725532
0.043543622 0.071604453 0.17265958
0.04389593 0.071604453 0.17265958
0.044220973 0.071560331 0.1725532
0.04454558 0.071516208 0.1724468
0.044869754 0.071472093 0.17234042
0.045221411 0.071472093 0.17234042
0.045544934 0.071427979 0.17223404
0.04589637 0.071427979 0.17223404
0.04624781 0.071427979 0.17223404
0.046599247 0.071427979 0.17223404
0.046979684 0.071472093 0.17234042
0.047360554 0.071516208 0.1724468
0.047771297 0.071604453 0.17265958
0.048182901 0.071692683 0.17287233
0.04859538 0.071780927 0.17308511
0.048978638 0.071825042 0.17319149
0.04933203 0.071825042 0.17319149
0.049685422 0.071825042 0.17319149
0.050038815 0.071825042 0.17319149
0.050361253 0.071780927 0.17308511
0.050683256 0.071736805 0.17297873
0.051004823 0.071692683 0.17287233
0.051357564 0.071692683 0.17287233
0.051742129 0.071736805 0.17297873
0.052127123 0.071780927 0.17308511
0.052512553 0.071825042 0.17319149
0.052865945 0.071825042 0.17319149
0.053219337 0.071825042 0.17319149
0.053572729 0.071825042 0.17319149
0.053959243 0.071869157 0.17329787
0.054412875 0.072001517 0.17361702
0.054834254 0.072089754 0.17382979
0.055256497 0.072177991 0.17404255
0.055645615 0.072222106 0.17414893
0.056000963 0.072222106 0.17414893
0.056390736 0.072266228 0.17425533
0.0567463 0.072266228 0.17425533
0.057136722 0.072310351 0.17436171
0.057492498 0.072310351 0.17436171
0.057848278 0.072310351 0.17436171
0.058239568 0.072354466 0.17446809
0.058667019 0.072442703 0.17468084
0.059131291 0.072575055 0.175
0.059524536 0.072619177 0.17510638
0.007564683 0.083085001 0.1993617
0.0079757283 0.083129339 0.19946809
0.0083782645 0.083085001 0.1993617
0.0087756803 0.082996331 0.19914894
0.0091771325 0.082952 0.19904256
0.0095730275 0.082863323 0.19882978
0.009978733 0.082863323 0.19882978
0.01036777 0.082730316 0.19851063
0.010749731 0.082552969 0.1980851
0.011117976 0.082286961 0.19744681
0.011489823 0.082065284 0.1969149
0.011872347 0.081932276 0.19659574
0.01225357 0.081799269 0.19627659
0.012640349 0.081710599 0.19606383
0.013026259 0.081621923 0.19585106
0.013425887 0.081621923 0.19585106
0.013818004 0.081577592 0.19574468
0.014201961 0.081488922 0.19553192
0.01458505 0.081400245 0.19531915
0.01496727 0.081311576 0.19510639
0.015348622 0.081222907 0.19489361
0.015737701 0.081178568 0.19478723
0.016108721 0.081045561 0.19446808
0.01647844 0.08091256 0.19414894
0.016846854 0.080779552 0.19382979
0.017213967 0.080646545 0.19351064
0.017570097 0.080469199 0.1930851
0.017934388 0.080336191 0.19276595
0.018307492 0.080247521 0.19255319
0.018679725 0.080158845 0.19234042
0.019051094 0.080070183 0.19212766
0.019432357 0.080025844 0.19202128
0.019813186 0.079981506 0.19191489
0.020182382 0.079892837 0.19170213
0.020539293 0.079759829 0.19138297
0.020894902 0.079626828 0.19106384
0.021249209 0.079493821 0.19074468
0.021614278 0.079405144 0.19053191
0.022003053 0.079405144 0.19053191
0.022379324 0.079360805 0.19042553
0.022755163 0.079316474 0.19031915
0.023130566 0.079272144 0.19021277
0.023492381 0.079183467 0.19
0.023853328 0.079094797 0.18978724
0.024213407 0.079006121 0.18957447
0.024572618 0.078917451 0.18936171
0.024916938 0.078784443 0.18904255
0.025274197 0.078695774 0.18882979
0.025616128 0.078562766 0.18851064
0.025956757 0.078429759 0.18819149
0.026310977 0.078341089 0.18797873
0.026634112 0.07816375 0.1875532
0.026924862 0.077897735 0.18691489
0.027181923 0.077543043 0.18606383
0.027451273 0.077232704 0.18531916
0.027717581 0.07692235 0.18457447
0.027980849 0.076611996 0.18382978
0.028241081 0.076301649 0.18308511
0.028481646 0.075946964 0.18223405
0.028735582 0.075636618 0.18148936
0.029003538 0.075370595 0.18085106
0.029286169 0.075148918 0.18031915
0.029566629 0.074927241 0.17978723
0.029844919 0.074705563 0.17925532
0.030138966 0.074528225 0.17882979
0.030431278 0.074350879 0.17840426
0.030740215 0.074217871 0.1780851
0.031047849 0.074084863 0.17776595
0.031354185 0.073951863 0.17744681
0.031659216 0.073818855 0.17712766
0.032020636 0.073818855 0.17712766
0.03240151 0.073863186 0.17723404
0.032782815 0.073907524 0.17734042
0.03312479 0.073863186 0.17723404
0.033466328 0.073818855 0.17712766
0.03378712 0.073730186 0.1769149
0.034086507 0.073597178 0.17659575
0.034426093 0.073552839 0.17648937
0.034744278 0.07346417 0.17627659
0.03508278 0.073419832 0.17617022
0.035399441 0.073331162 0.17595744
0.035671998 0.073153816 0.17553191
0.035920985 0.072932139 0.175
0.0361678 0.072710462 0.17446809
0.036456984 0.072577454 0.17414893
0.036767352 0.072488785 0.17393617
0.037099563 0.072444454 0.17382979
0.037408408 0.072355777 0.17361702
0.037716392 0.072267108 0.17340426
0.038046859 0.072222769 0.17329787
0.038400467 0.072222769 0.17329787
0.038754076 0.072222769 0.17329787
0.039083678 0.072178431 0.17319149
0.039364398 0.072045423 0.17287233
0.039668255 0.071956754 0.17265958
0.039971244 0.071868084 0.1724468
0.040298242 0.071823746 0.17234042
0.040624805 0.071779415 0.17223404
0.040976241 0.071779415 0.17223404
0.041327681 0.071779415 0.17223404
0.041679118 0.071779415 0.17223404
0.042030554 0.071779415 0.17223404
0.042355817 0.071735077 0.17212766
0.042707037 0.071735077 0.17212766
0.043058258 0.071735077 0.17212766
0.043409478 0.071735077 0.17212766
0.043787744 0.071779415 0.17223404
0.044111919 0.071735077 0.17212766
0.044435658 0.071690738 0.17202127
0.044758964 0.071646407 0.17191489
0.045109753 0.071646407 0.17191489
0.045460537 0.071646407 0.17191489
0.045811325 0.071646407 0.17191489
0.046133544 0.071602069 0.17180851
0.046484116 0.071602069 0.17180851
0.046834685 0.071602069 0.17180851
0.047243688 0.071690738 0.17202127
0.04765356 0.071779415 0.17223404
0.048064299 0.071868084 0.1724468
0.04847591 0.071956754 0.17265958
0.0488583 0.072001092 0.17276596
0.049241122 0.072045423 0.17287233
0.049624387 0.072089769 0.17297873
0.049977344 0.072089769 0.17297873
0.0503303 0.072089769 0.17297873
0.050652083 0.072045423 0.17287233
0.050973438 0.072001092 0.17276596
0.051325962 0.072001092 0.17276596
0.051678482 0.072001092 0.17276596
0.052095085 0.072089769 0.17297873
0.052448045 0.072089769 0.17297873
0.052833471 0.0721341 0.17308511
0.053186648 0.0721341 0.17308511
0.053539824 0.0721341 0.17308511
0.053926118 0.072178431 0.17319149
0.054346196 0.072267108 0.17340426
0.054767136 0.072355777 0.17361702
0.055222724 0.072488785 0.17393617
0.055611625 0.072533116 0.17404255
0.056000963 0.072577454 0.17414893
0.056390736 0.072621793 0.17425533
0.0567463 0.072621793 0.17425533
0.057101861 0.072621793 0.17425533
0.057457425 0.072621793 0.17425533
0.057812985 0.072621793 0.17425533
0.058204059 0.072666131 0.17436171
0.058631293 0.072754793 0.17457446
0.059095345 0.072887808 0.17489362
0.059488371 0.072932139 0.175
0.059845455 0.072932139 0.175
0.0067150765 0.083046265 0.19829787
0.0071311556 0.083179928 0.19861703
0.0075485362 0.083313584 0.19893616
